-2.802169322967529297e+00 -2.878142118453979492e+00 -2.836831808090209961e+00 -2.825147390365600586e+00 -2.876609086990356445e+00 -2.806021213531494141e+00 -2.944283485412597656e+00 -2.878242015838623047e+00 -2.824883699417114258e+00 -2.785681962966918945e+00 -2.805261611938476562e+00 -2.837122440338134766e+00 -2.803917169570922852e+00 -2.822653293609619141e+00 -2.837576866149902344e+00 -2.838415384292602539e+00 -2.844650030136108398e+00 -2.854523658752441406e+00 -2.897113323211669922e+00 -2.950400352478027344e+00 -2.953388452529907227e+00 -2.996479034423828125e+00 -3.009243726730346680e+00 -3.077663898468017578e+00 -3.120290279388427734e+00 -3.136545896530151367e+00 -3.177811861038208008e+00 -3.242472648620605469e+00 -3.305563211441040039e+00 -3.399844646453857422e+00 -3.478300094604492188e+00 -3.496472358703613281e+00 -3.541364192962646484e+00 -3.576753139495849609e+00 -3.628606081008911133e+00 -3.652299404144287109e+00 -3.634073019027709961e+00 -3.604972124099731445e+00 -3.584718227386474609e+00 -3.566829919815063477e+00 -3.588027238845825195e+00 -3.506664752960205078e+00 -3.515850067138671875e+00 -3.450673341751098633e+00 -3.430812597274780273e+00 -3.489339113235473633e+00 -3.435905456542968750e+00 -3.333061218261718750e+00 -3.393548250198364258e+00 -3.492696523666381836e+00 -3.485044717788696289e+00 -3.535039186477661133e+00 -3.700057506561279297e+00 -3.636442422866821289e+00 -3.704314708709716797e+00 -3.797937631607055664e+00 -3.815187931060791016e+00 -3.914599895477294922e+00 -3.988099098205566406e+00 -3.902906417846679688e+00 -3.932582616806030273e+00 -3.962869405746459961e+00 -3.962915182113647461e+00 -4.070981979370117188e+00 -4.099473953247070312e+00 -4.198203086853027344e+00 -4.199906349182128906e+00 -4.050259113311767578e+00 -4.080369949340820312e+00 -4.054028034210205078e+00 -4.102129936218261719e+00 -4.132924079895019531e+00 -4.136093616485595703e+00 -4.179487228393554688e+00 -4.292551517486572266e+00 -4.352205276489257812e+00 -4.426007747650146484e+00 -4.429359912872314453e+00 -4.516637802124023438e+00 -4.538193225860595703e+00 -4.351758003234863281e+00 -4.332837104797363281e+00 -4.481318473815917969e+00 -4.478050708770751953e+00 -4.536248207092285156e+00 -4.652888298034667969e+00 -4.738530158996582031e+00 -4.891788005828857422e+00 -4.937159061431884766e+00 -4.855048179626464844e+00 -4.846947669982910156e+00 -4.929674625396728516e+00 -4.775425434112548828e+00 -4.986392021179199219e+00 -4.919451713562011719e+00 -5.077644348144531250e+00 -5.192698478698730469e+00 -5.353096485137939453e+00 -5.383828163146972656e+00 -5.558073997497558594e+00 -5.586590290069580078e+00 -5.620971202850341797e+00 -5.569111347198486328e+00 -5.731319427490234375e+00 -5.694476127624511719e+00 -5.591665267944335938e+00 -5.763705253601074219e+00 -5.756417751312255859e+00 -5.959409713745117188e+00 -5.863999843597412109e+00 nan nan nan -6.381039619445800781e+00 -6.323005199432373047e+00 -6.281418323516845703e+00 -6.380773544311523438e+00 -6.352223873138427734e+00
-2.711386919021606445e+00 -2.813297986984252930e+00 -2.818111896514892578e+00 -2.870318651199340820e+00 -2.842622756958007812e+00 -2.827076196670532227e+00 -2.815354585647583008e+00 -2.877915143966674805e+00 -2.838854789733886719e+00 -2.805763959884643555e+00 -2.824877023696899414e+00 -2.830671548843383789e+00 -2.798779964447021484e+00 -2.777566194534301758e+00 -2.852625846862792969e+00 -2.853906631469726562e+00 -2.856833457946777344e+00 -2.834184646606445312e+00 -2.885515689849853516e+00 -2.920493841171264648e+00 -2.947558641433715820e+00 -3.043604373931884766e+00 -3.063409090042114258e+00 -3.089087009429931641e+00 -3.148894309997558594e+00 -3.155512809753417969e+00 -3.183641910552978516e+00 -3.252182483673095703e+00 -3.275516033172607422e+00 -3.329376220703125000e+00 -3.428823232650756836e+00 -3.471519708633422852e+00 -3.514779090881347656e+00 -3.541480541229248047e+00 -3.609908342361450195e+00 -3.616266012191772461e+00 -3.619429826736450195e+00 -3.560206890106201172e+00 -3.561710834503173828e+00 -3.594836473464965820e+00 -3.596098899841308594e+00 -3.532040119171142578e+00 -3.550161123275756836e+00 -3.441837310791015625e+00 -3.400744438171386719e+00 -3.395786523818969727e+00 -3.416577577590942383e+00 -3.367794036865234375e+00 -3.300170898437500000e+00 -3.372380971908569336e+00 -3.533393859863281250e+00 -3.574663400650024414e+00 -3.665673494338989258e+00 -3.609226703643798828e+00 -3.719923257827758789e+00 -3.830202817916870117e+00 -3.756945133209228516e+00 -3.886569738388061523e+00 -3.866843223571777344e+00 -3.834238529205322266e+00 -3.814737319946289062e+00 -3.920025110244750977e+00 -3.926441431045532227e+00 -4.035037040710449219e+00 -4.070533752441406250e+00 -4.178470134735107422e+00 -4.207909584045410156e+00 -4.118360996246337891e+00 -4.104233264923095703e+00 -4.052525043487548828e+00 -4.071052074432373047e+00 -4.093455314636230469e+00 -4.071766376495361328e+00 -4.058753967285156250e+00 -4.296566009521484375e+00 -4.293081283569335938e+00 -4.429924964904785156e+00 -4.433100223541259766e+00 -4.503278255462646484e+00 -4.476005554199218750e+00 -4.453845500946044922e+00 -4.376443386077880859e+00 -4.514378547668457031e+00 -4.499278545379638672e+00 -4.548901557922363281e+00 -4.562165737152099609e+00 -4.768325328826904297e+00 -4.814361572265625000e+00 -4.909220218658447266e+00 -4.848268508911132812e+00 -4.782889842987060547e+00 -4.968823909759521484e+00 -4.752710819244384766e+00 -4.696881771087646484e+00 -4.795895576477050781e+00 -5.095984935760498047e+00 -5.088814735412597656e+00 -5.197787284851074219e+00 -5.435883045196533203e+00 -5.613652229309082031e+00 -5.544184684753417969e+00 -5.646398067474365234e+00 -5.600651264190673828e+00 -5.637248992919921875e+00 -5.635565280914306641e+00 -5.757915019989013672e+00 -5.805214405059814453e+00 nan nan nan nan -6.386744976043701172e+00 -6.380901336669921875e+00 -6.324906349182128906e+00 -6.328145027160644531e+00 -6.406758785247802734e+00 -6.334443092346191406e+00 -6.356173992156982422e+00
-2.815172433853149414e+00 -2.838101148605346680e+00 -2.881388902664184570e+00 -2.876861095428466797e+00 -2.827414035797119141e+00 -2.841895580291748047e+00 -2.803231239318847656e+00 -2.835918188095092773e+00 -2.870378971099853516e+00 -2.827395677566528320e+00 -2.839834213256835938e+00 -2.839495420455932617e+00 -2.842108964920043945e+00 -2.813747644424438477e+00 -2.836317539215087891e+00 -2.825893163681030273e+00 -2.854230165481567383e+00 -2.852343082427978516e+00 -2.894095897674560547e+00 -2.932130813598632812e+00 -2.977530479431152344e+00 -3.018739461898803711e+00 -3.075476169586181641e+00 -3.106305599212646484e+00 -3.140198230743408203e+00 -3.174599647521972656e+00 -3.210506677627563477e+00 -3.217801332473754883e+00 -3.273070812225341797e+00 -3.332218647003173828e+00 -3.407586097717285156e+00 -3.467669725418090820e+00 -3.490045309066772461e+00 -3.525432586669921875e+00 -3.544468164443969727e+00 -3.596717357635498047e+00 -3.642554044723510742e+00 -3.601020812988281250e+00 -3.607243299484252930e+00 -3.537170886993408203e+00 -3.540583610534667969e+00 -3.518127441406250000e+00 -3.536952972412109375e+00 -3.545745372772216797e+00 -3.442561626434326172e+00 -3.436659336090087891e+00 -3.411017656326293945e+00 -3.453404188156127930e+00 -3.456799983978271484e+00 -3.372226953506469727e+00 -3.482478380203247070e+00 -3.637533664703369141e+00 -3.688516378402709961e+00 -3.676219701766967773e+00 -3.708113908767700195e+00 -3.809346437454223633e+00 -3.894656181335449219e+00 -3.891526222229003906e+00 -3.846837759017944336e+00 -3.865891695022583008e+00 -3.900816679000854492e+00 -3.893014669418334961e+00 -3.852820158004760742e+00 -3.996150732040405273e+00 -4.059278964996337891e+00 -4.172190189361572266e+00 -4.298975467681884766e+00 -4.231582164764404297e+00 -4.159523963928222656e+00 -4.078311443328857422e+00 -4.080528259277343750e+00 -4.120821475982666016e+00 -4.144565105438232422e+00 -4.139550209045410156e+00 -4.209885120391845703e+00 -4.324674129486083984e+00 -4.435547828674316406e+00 -4.483540534973144531e+00 -4.520258426666259766e+00 -4.598454952239990234e+00 -4.616947650909423828e+00 -4.561835765838623047e+00 -4.679413318634033203e+00 -4.548313617706298828e+00 -4.479242324829101562e+00 -4.621655464172363281e+00 -4.755230903625488281e+00 -4.829559326171875000e+00 -4.821629524230957031e+00 -4.878910541534423828e+00 -4.867824077606201172e+00 -5.002137660980224609e+00 -4.816922187805175781e+00 -4.739501476287841797e+00 -4.797801017761230469e+00 -4.821520805358886719e+00 -4.982856750488281250e+00 -5.146250724792480469e+00 -5.352991104125976562e+00 -5.388557434082031250e+00 -5.507915496826171875e+00 -5.552986145019531250e+00 -5.594152450561523438e+00 -5.611710071563720703e+00 -5.423999786376953125e+00 nan nan nan -6.143000125885009766e+00 -6.082749843597412109e+00 -6.258119583129882812e+00 -6.330948352813720703e+00 -6.300902366638183594e+00 -6.341133594512939453e+00 -6.322257518768310547e+00 -6.293446063995361328e+00 -6.301750183105468750e+00 -6.374134540557861328e+00
-2.846378087997436523e+00 -2.857298851013183594e+00 -2.881993293762207031e+00 -2.892076015472412109e+00 -2.866185903549194336e+00 -2.861344575881958008e+00 -2.822690725326538086e+00 -2.850536823272705078e+00 -2.878726005554199219e+00 -2.883229970932006836e+00 -2.855135679244995117e+00 -2.867131710052490234e+00 -2.866137027740478516e+00 -2.864439249038696289e+00 -2.856009006500244141e+00 -2.875648975372314453e+00 -2.848450660705566406e+00 -2.860455513000488281e+00 -2.892653942108154297e+00 -2.954965353012084961e+00 -2.996379375457763672e+00 -3.013211250305175781e+00 -3.036906242370605469e+00 -3.076463699340820312e+00 -3.117764711380004883e+00 -3.181804418563842773e+00 -3.210614681243896484e+00 -3.248864412307739258e+00 -3.267204999923706055e+00 -3.317157983779907227e+00 -3.384511470794677734e+00 -3.429606199264526367e+00 -3.457589864730834961e+00 -3.534364938735961914e+00 -3.512119293212890625e+00 -3.605653285980224609e+00 -3.673897981643676758e+00 -3.646066427230834961e+00 -3.577385187149047852e+00 -3.563085317611694336e+00 -3.606593608856201172e+00 -3.603072404861450195e+00 -3.534616231918334961e+00 -3.469947099685668945e+00 -3.489081382751464844e+00 -3.479931592941284180e+00 -3.422461748123168945e+00 -3.489043712615966797e+00 -3.454056262969970703e+00 -3.327399492263793945e+00 -3.402697801589965820e+00 -3.518280029296875000e+00 -3.643274784088134766e+00 -3.726046800613403320e+00 -3.716002464294433594e+00 -3.777566909790039062e+00 -3.856554508209228516e+00 -3.878882169723510742e+00 -3.832233667373657227e+00 -3.823214054107666016e+00 -3.985766649246215820e+00 -3.947024583816528320e+00 -3.988679885864257812e+00 -3.983390331268310547e+00 -4.040124893188476562e+00 -4.154133796691894531e+00 -4.279161453247070312e+00 -4.361271381378173828e+00 -4.105341434478759766e+00 -4.103766441345214844e+00 -4.056257247924804688e+00 -4.188177108764648438e+00 -4.132168769836425781e+00 -4.228058338165283203e+00 -4.139212131500244141e+00 -4.437656879425048828e+00 -4.435708522796630859e+00 -4.547691822052001953e+00 -4.573442935943603516e+00 -4.565645217895507812e+00 -4.614125728607177734e+00 -4.578131675720214844e+00 -4.596116542816162109e+00 -4.471814155578613281e+00 -4.529970169067382812e+00 -4.712773799896240234e+00 -4.757236480712890625e+00 -4.872935771942138672e+00 -4.964889049530029297e+00 -4.908751964569091797e+00 -4.960120201110839844e+00 -4.980370521545410156e+00 -4.786737442016601562e+00 -4.971110820770263672e+00 -4.740819454193115234e+00 -4.769363880157470703e+00 -4.967075347900390625e+00 -4.972846031188964844e+00 -5.316840648651123047e+00 -5.442135810852050781e+00 -5.486679077148437500e+00 -5.613080501556396484e+00 nan nan nan -5.911283016204833984e+00 -6.037321567535400391e+00 -6.008915901184082031e+00 -6.144411087036132812e+00 -6.108930110931396484e+00 -6.302346229553222656e+00 -6.225487709045410156e+00 -6.294674873352050781e+00 -6.252512931823730469e+00 -6.346511363983154297e+00 -6.281894683837890625e+00 -6.326905250549316406e+00 -6.365153789520263672e+00
-2.911595821380615234e+00 -2.878442287445068359e+00 -2.916189193725585938e+00 -2.904257059097290039e+00 -2.890346527099609375e+00 -2.850942850112915039e+00 -2.864932298660278320e+00 -2.820989131927490234e+00 -2.861543416976928711e+00 -2.874796390533447266e+00 -2.859424591064453125e+00 -2.852870941162109375e+00 -2.854521274566650391e+00 -2.841522693634033203e+00 -2.857905864715576172e+00 -2.844893217086791992e+00 -2.894736766815185547e+00 -2.897265672683715820e+00 -2.926890611648559570e+00 -2.972295761108398438e+00 -2.947361946105957031e+00 -2.984040260314941406e+00 -3.028190135955810547e+00 -3.069832563400268555e+00 -3.101671934127807617e+00 -3.166122674942016602e+00 -3.183354377746582031e+00 -3.247274398803710938e+00 -3.271079063415527344e+00 -3.292176246643066406e+00 -3.371000766754150391e+00 -3.417319297790527344e+00 -3.472071409225463867e+00 -3.506805419921875000e+00 -3.530670166015625000e+00 -3.582638263702392578e+00 -3.609906911849975586e+00 -3.598574399948120117e+00 -3.556302547454833984e+00 -3.677217245101928711e+00 -3.572794437408447266e+00 -3.521630048751831055e+00 -3.514290094375610352e+00 -3.489644527435302734e+00 -3.477725505828857422e+00 -3.473387241363525391e+00 -3.472047090530395508e+00 -3.462693929672241211e+00 -3.361189126968383789e+00 -3.393918037414550781e+00 -3.489709138870239258e+00 -3.530486583709716797e+00 -3.658644676208496094e+00 -3.698027372360229492e+00 -3.704425096511840820e+00 -3.725886106491088867e+00 -3.843173265457153320e+00 -3.866725206375122070e+00 -3.923929929733276367e+00 -3.879963159561157227e+00 -3.930941581726074219e+00 -4.068691253662109375e+00 -4.017837524414062500e+00 -4.060603141784667969e+00 -4.031060218811035156e+00 -4.038785457611083984e+00 -4.242979526519775391e+00 -4.277802467346191406e+00 -4.258175849914550781e+00 -4.227299213409423828e+00 -4.084110736846923828e+00 -4.069978713989257812e+00 -4.194979667663574219e+00 -4.216628074645996094e+00 -4.183754920959472656e+00 -4.304213047027587891e+00 -4.439373493194580078e+00 -4.479989528656005859e+00 -4.577087879180908203e+00 -4.553736686706542969e+00 -4.601525783538818359e+00 -4.563783168792724609e+00 -4.582316875457763672e+00 -4.616035461425781250e+00 -4.643764495849609375e+00 -4.706314086914062500e+00 -4.778552532196044922e+00 -4.833186149597167969e+00 -4.982638359069824219e+00 -5.119532585144042969e+00 -5.096176147460937500e+00 -4.990373611450195312e+00 -4.821222782135009766e+00 -5.113844871520996094e+00 -4.901178836822509766e+00 -5.121149063110351562e+00 -5.007407665252685547e+00 -5.178615093231201172e+00 nan nan nan nan -5.722809314727783203e+00 -5.869945049285888672e+00 -5.863351821899414062e+00 -5.913167953491210938e+00 -5.987896919250488281e+00 -5.967586994171142578e+00 -6.067171096801757812e+00 -6.114836692810058594e+00 -6.168157577514648438e+00 -6.262898921966552734e+00 -6.179539680480957031e+00 -6.261517047882080078e+00 -6.258677959442138672e+00 -6.323874473571777344e+00 -6.314008235931396484e+00 -6.216338634490966797e+00
-2.896734237670898438e+00 -2.932404041290283203e+00 -2.906894445419311523e+00 -2.896116971969604492e+00 -2.860871791839599609e+00 -2.832174777984619141e+00 -2.853156805038452148e+00 -2.830871105194091797e+00 -2.814361810684204102e+00 -2.845147609710693359e+00 -2.895412683486938477e+00 -2.846562147140502930e+00 -2.866638183593750000e+00 -2.909977912902832031e+00 -2.900110960006713867e+00 -2.915971279144287109e+00 -2.898385286331176758e+00 -2.907878637313842773e+00 -2.932577371597290039e+00 -2.957917213439941406e+00 -2.994661092758178711e+00 -3.013312578201293945e+00 -3.036613702774047852e+00 -3.047458648681640625e+00 -3.098907470703125000e+00 -3.125254631042480469e+00 -3.192554473876953125e+00 -3.235146522521972656e+00 -3.277802705764770508e+00 -3.251816034317016602e+00 -3.319233179092407227e+00 -3.360706806182861328e+00 -3.442747592926025391e+00 -3.492726325988769531e+00 -3.525713205337524414e+00 -3.590413331985473633e+00 -3.654348611831665039e+00 -3.669355869293212891e+00 -3.631736993789672852e+00 -3.564436435699462891e+00 -3.524577379226684570e+00 -3.544374704360961914e+00 -3.573366641998291016e+00 -3.497185945510864258e+00 -3.435705184936523438e+00 -3.465263605117797852e+00 -3.462967872619628906e+00 -3.436438083648681641e+00 -3.363977432250976562e+00 -3.376965045928955078e+00 -3.480678558349609375e+00 -3.532958984375000000e+00 -3.606431961059570312e+00 -3.688892841339111328e+00 -3.687604427337646484e+00 -3.746298551559448242e+00 -3.764449596405029297e+00 -3.892140150070190430e+00 -3.921615362167358398e+00 -3.957342863082885742e+00 -3.949878215789794922e+00 -4.033493518829345703e+00 -4.109508991241455078e+00 -4.113650321960449219e+00 -4.033669948577880859e+00 -4.097458839416503906e+00 -4.148192882537841797e+00 -4.262195587158203125e+00 -4.204504013061523438e+00 -4.193920135498046875e+00 -4.158902645111083984e+00 -4.123379707336425781e+00 -4.224493980407714844e+00 -4.234957218170166016e+00 -4.238474369049072266e+00 -4.233846187591552734e+00 -4.268419742584228516e+00 -4.485575199127197266e+00 -4.457452297210693359e+00 -4.558605670928955078e+00 -4.662847995758056641e+00 -4.620140075683593750e+00 -4.482936859130859375e+00 -4.530055999755859375e+00 -4.731435775756835938e+00 -4.691083431243896484e+00 -4.792271614074707031e+00 -4.896753787994384766e+00 -5.103740215301513672e+00 -5.077782154083251953e+00 -5.118394374847412109e+00 -4.943926811218261719e+00 -4.877709388732910156e+00 -5.010006904602050781e+00 -4.989539623260498047e+00 -5.278904914855957031e+00 nan nan -5.177000045776367188e+00 -5.538352012634277344e+00 -5.632170677185058594e+00 -5.741349220275878906e+00 -5.751311779022216797e+00 -5.859562397003173828e+00 -5.789183616638183594e+00 -5.888933181762695312e+00 -5.941442489624023438e+00 -5.973639488220214844e+00 -6.081699848175048828e+00 -6.094501495361328125e+00 -6.126686096191406250e+00 -6.160538196563720703e+00 -6.196389198303222656e+00 -6.156576156616210938e+00 -6.144463062286376953e+00 -6.167343139648437500e+00 -6.214715480804443359e+00 -6.303713798522949219e+00
-2.940739631652832031e+00 -2.948439359664916992e+00 -2.909269332885742188e+00 -2.901922225952148438e+00 -2.877919435501098633e+00 -2.873797655105590820e+00 -2.870238065719604492e+00 -2.855173826217651367e+00 -2.826460123062133789e+00 -2.855743408203125000e+00 -2.848650455474853516e+00 -2.857598781585693359e+00 -2.855784416198730469e+00 -2.914530277252197266e+00 -2.885515928268432617e+00 -2.929237127304077148e+00 -2.920897483825683594e+00 -2.917185783386230469e+00 -2.879319667816162109e+00 -2.936098575592041016e+00 -2.988253593444824219e+00 -3.016158580780029297e+00 -3.033524751663208008e+00 -3.064831018447875977e+00 -3.105924129486083984e+00 -3.130531787872314453e+00 -3.158020257949829102e+00 -3.189849376678466797e+00 -3.252449274063110352e+00 -3.293461561203002930e+00 -3.314718484878540039e+00 -3.381813526153564453e+00 -3.417959928512573242e+00 -3.501331329345703125e+00 -3.555295467376708984e+00 -3.596294641494750977e+00 -3.647367238998413086e+00 -3.626586437225341797e+00 -3.577131271362304688e+00 -3.571099996566772461e+00 -3.580524682998657227e+00 -3.543632745742797852e+00 -3.546166658401489258e+00 -3.506180524826049805e+00 -3.455600500106811523e+00 -3.435832262039184570e+00 -3.448953866958618164e+00 -3.459474802017211914e+00 -3.446917295455932617e+00 -3.454881191253662109e+00 -3.447613239288330078e+00 -3.532025337219238281e+00 -3.699995040893554688e+00 -3.663808107376098633e+00 -3.696045160293579102e+00 -3.750326633453369141e+00 -3.719104051589965820e+00 -3.787120103836059570e+00 -3.933729171752929688e+00 -3.957165002822875977e+00 -3.929853200912475586e+00 -3.976830482482910156e+00 -4.078413009643554688e+00 -4.130005359649658203e+00 -4.138048648834228516e+00 -3.899511575698852539e+00 -4.240945339202880859e+00 -4.150032520294189453e+00 -4.212728977203369141e+00 -4.202646732330322266e+00 -4.116333484649658203e+00 -4.152194023132324219e+00 -4.220458507537841797e+00 -4.248971939086914062e+00 -4.296478271484375000e+00 -4.262197494506835938e+00 -4.354612350463867188e+00 -4.397131443023681641e+00 -4.446800231933593750e+00 -4.475692749023437500e+00 -4.663461685180664062e+00 -4.590714931488037109e+00 -4.502293586730957031e+00 -4.633386611938476562e+00 -4.676639556884765625e+00 -4.792589187622070312e+00 -4.774772644042968750e+00 -4.871353626251220703e+00 -4.961427211761474609e+00 -5.103208541870117188e+00 -5.060702800750732422e+00 -5.177999019622802734e+00 -5.122888088226318359e+00 nan -5.058362007141113281e+00 -5.069067478179931641e+00 -5.180037021636962891e+00 -5.309732437133789062e+00 -5.244046688079833984e+00 -5.398101329803466797e+00 -5.672493457794189453e+00 -5.675647258758544922e+00 -5.788764476776123047e+00 -5.700283050537109375e+00 -5.809715270996093750e+00 -5.771738052368164062e+00 -5.949759006500244141e+00 -5.997569084167480469e+00 -6.025253295898437500e+00 -6.067879199981689453e+00 -6.065614223480224609e+00 -6.230805873870849609e+00 -6.246293544769287109e+00 -6.188448429107666016e+00 -6.216019153594970703e+00 -6.147686958312988281e+00 -6.243277549743652344e+00 -6.347028255462646484e+00
-2.920895814895629883e+00 -2.920958280563354492e+00 -2.914889097213745117e+00 -2.923987388610839844e+00 -2.875834465026855469e+00 -2.860175371170043945e+00 -2.881421804428100586e+00 -2.861931085586547852e+00 -2.841850042343139648e+00 -2.866851091384887695e+00 -2.800328493118286133e+00 -2.824295997619628906e+00 -2.831331491470336914e+00 -2.899308443069458008e+00 -2.879589080810546875e+00 -2.920954704284667969e+00 -2.882899284362792969e+00 -2.885682582855224609e+00 -2.947534084320068359e+00 -2.930075645446777344e+00 -3.003540754318237305e+00 -3.018152952194213867e+00 -3.048609256744384766e+00 -3.073715925216674805e+00 -3.077326059341430664e+00 -3.091840982437133789e+00 -3.140428066253662109e+00 -3.192933797836303711e+00 -3.236953496932983398e+00 -3.300091743469238281e+00 -3.344741344451904297e+00 -3.375690698623657227e+00 -3.429218769073486328e+00 -3.473558425903320312e+00 -3.520945310592651367e+00 -3.627416133880615234e+00 -3.645794630050659180e+00 -3.635539531707763672e+00 -3.589303016662597656e+00 -3.565446853637695312e+00 -3.550695180892944336e+00 -3.569978237152099609e+00 -3.526508331298828125e+00 -3.457942962646484375e+00 -3.448554277420043945e+00 -3.443321228027343750e+00 -3.429346799850463867e+00 -3.465342283248901367e+00 -3.399726390838623047e+00 -3.487007141113281250e+00 -3.471131086349487305e+00 -3.533936023712158203e+00 -3.620128631591796875e+00 -3.599721431732177734e+00 -3.546298503875732422e+00 -3.741227626800537109e+00 -3.689917087554931641e+00 -3.751061677932739258e+00 -3.867401361465454102e+00 -3.946878671646118164e+00 -3.908734798431396484e+00 -4.027940273284912109e+00 -4.064886569976806641e+00 -4.186831951141357422e+00 -4.150065898895263672e+00 -4.047728061676025391e+00 -4.140294075012207031e+00 -4.193341255187988281e+00 -4.197503089904785156e+00 -4.096122264862060547e+00 -4.089764118194580078e+00 -4.183580398559570312e+00 -4.137178421020507812e+00 -4.278824329376220703e+00 -4.281348228454589844e+00 -4.255495548248291016e+00 -4.364112854003906250e+00 -4.373464584350585938e+00 -4.359523773193359375e+00 -4.416811466217041016e+00 -4.584952831268310547e+00 -4.585181713104248047e+00 -4.508723735809326172e+00 -4.674580574035644531e+00 -4.658639907836914062e+00 -4.765843391418457031e+00 -4.833977222442626953e+00 -4.920091629028320312e+00 -4.970779418945312500e+00 -5.089331150054931641e+00 -5.094071388244628906e+00 -5.087076663970947266e+00 -5.168395042419433594e+00 -5.167185306549072266e+00 -5.113643646240234375e+00 -5.228864669799804688e+00 -5.200317859649658203e+00 -5.324928760528564453e+00 -5.327414512634277344e+00 -5.301846504211425781e+00 -5.452397823333740234e+00 -5.607781410217285156e+00 -5.669095039367675781e+00 -5.724783420562744141e+00 -5.736995697021484375e+00 -5.729451656341552734e+00 -5.847359657287597656e+00 -5.918743610382080078e+00 -5.983405113220214844e+00 -6.034656047821044922e+00 -6.018121242523193359e+00 -6.156409740447998047e+00 -6.215405464172363281e+00 -6.222677230834960938e+00 -6.091840744018554688e+00 -6.191936016082763672e+00 -6.195087432861328125e+00 -6.290177822113037109e+00
-2.940327882766723633e+00 -2.929989576339721680e+00 -2.899198770523071289e+00 -2.904430150985717773e+00 -2.921787977218627930e+00 -2.915498733520507812e+00 -2.877487182617187500e+00 -2.853067398071289062e+00 -2.822482585906982422e+00 -2.814229249954223633e+00 -2.839526891708374023e+00 -2.817895650863647461e+00 -2.799586057662963867e+00 -2.843201637268066406e+00 -2.754668235778808594e+00 -2.915839672088623047e+00 -2.908989906311035156e+00 -2.863012075424194336e+00 -2.917413711547851562e+00 -2.927045583724975586e+00 -2.974642992019653320e+00 -3.001827478408813477e+00 -3.035081624984741211e+00 -3.041076421737670898e+00 -3.062437534332275391e+00 -3.109723091125488281e+00 -3.134865999221801758e+00 -3.209152221679687500e+00 -3.254376173019409180e+00 -3.291788339614868164e+00 -3.352986097335815430e+00 -3.371069431304931641e+00 -3.365633487701416016e+00 -3.447444915771484375e+00 -3.530562162399291992e+00 -3.581435680389404297e+00 -3.634506464004516602e+00 -3.643358945846557617e+00 -3.630891084671020508e+00 -3.625267505645751953e+00 -3.564134597778320312e+00 -3.560515642166137695e+00 -3.600828409194946289e+00 -3.546438217163085938e+00 -3.521023511886596680e+00 -3.424874782562255859e+00 -3.450488805770874023e+00 -3.543673038482666016e+00 -3.555467367172241211e+00 -3.424294233322143555e+00 -3.453563690185546875e+00 -3.769217967987060547e+00 -3.450220584869384766e+00 -3.581698656082153320e+00 -3.634937286376953125e+00 -3.732130765914916992e+00 -3.819040536880493164e+00 -3.768466711044311523e+00 -3.790327787399291992e+00 -3.992138147354125977e+00 -4.012277126312255859e+00 -4.077207088470458984e+00 -4.004763126373291016e+00 -4.087981224060058594e+00 -4.124835491180419922e+00 -4.100357055664062500e+00 -4.228385448455810547e+00 -4.146199703216552734e+00 -4.050067901611328125e+00 -4.135836601257324219e+00 -4.048128128051757812e+00 -4.280498504638671875e+00 -4.244809627532958984e+00 -4.357729911804199219e+00 -4.344861507415771484e+00 -4.228851795196533203e+00 -4.232640743255615234e+00 -4.334601402282714844e+00 -4.365637779235839844e+00 -4.455061912536621094e+00 -4.663811206817626953e+00 -4.565814971923828125e+00 -4.742300033569335938e+00 -4.624348163604736328e+00 -4.735048770904541016e+00 -4.695468902587890625e+00 -4.909999847412109375e+00 -5.077608585357666016e+00 -5.087213993072509766e+00 -5.086031913757324219e+00 -5.190169811248779297e+00 -5.070450782775878906e+00 -5.050835132598876953e+00 -5.147194385528564453e+00 -5.205372333526611328e+00 -5.217548370361328125e+00 -5.305893421173095703e+00 -5.373578548431396484e+00 -5.414471149444580078e+00 -5.354158878326416016e+00 -5.428339958190917969e+00 -5.507447242736816406e+00 -5.618300914764404297e+00 -5.642689228057861328e+00 -5.758382797241210938e+00 -5.777703285217285156e+00 -5.800043582916259766e+00 -5.865293979644775391e+00 -5.924340724945068359e+00 -6.020035743713378906e+00 -6.009364128112792969e+00 -6.057723522186279297e+00 -6.025994300842285156e+00 -6.068479537963867188e+00 -6.141633510589599609e+00 -6.168342113494873047e+00 -6.205710411071777344e+00 -6.239877700805664062e+00
-2.952023029327392578e+00 -2.948949813842773438e+00 -2.947241067886352539e+00 -2.916933536529541016e+00 -2.892767906188964844e+00 -2.890520334243774414e+00 -2.855546474456787109e+00 -2.873228073120117188e+00 -2.838700532913208008e+00 -2.842340230941772461e+00 -2.800936937332153320e+00 -2.827664375305175781e+00 -2.796617984771728516e+00 -2.821364879608154297e+00 -2.849643468856811523e+00 -2.861104965209960938e+00 -2.895832300186157227e+00 -2.899464607238769531e+00 -2.909993648529052734e+00 -2.917404174804687500e+00 -2.997323274612426758e+00 -2.993998527526855469e+00 -3.025705099105834961e+00 -3.052989721298217773e+00 -3.070753812789916992e+00 -3.097945690155029297e+00 -3.136966466903686523e+00 -3.189169168472290039e+00 -3.224469900131225586e+00 -3.263768672943115234e+00 -3.343614816665649414e+00 -3.402287006378173828e+00 -3.419311285018920898e+00 -3.428620338439941406e+00 -3.525861978530883789e+00 -3.537912845611572266e+00 -3.624581813812255859e+00 -3.642250299453735352e+00 -3.655396699905395508e+00 -3.610708951950073242e+00 -3.594432353973388672e+00 -3.583873510360717773e+00 -3.634548902511596680e+00 -3.628916501998901367e+00 -3.511938571929931641e+00 -3.432456493377685547e+00 -3.573209762573242188e+00 -3.583715200424194336e+00 -3.562274456024169922e+00 -3.647402286529541016e+00 -3.555069208145141602e+00 -3.562551021575927734e+00 -3.601057291030883789e+00 -3.497254371643066406e+00 -3.738261222839355469e+00 -3.795733213424682617e+00 -3.774304866790771484e+00 -3.747319459915161133e+00 -3.801517724990844727e+00 -3.959258317947387695e+00 -4.037375926971435547e+00 -3.994946241378784180e+00 -3.935223102569580078e+00 -4.060596466064453125e+00 -4.277506828308105469e+00 -4.094431400299072266e+00 -4.037008285522460938e+00 -4.109683513641357422e+00 -4.299489498138427734e+00 -4.151507854461669922e+00 -4.157911300659179688e+00 -4.242069244384765625e+00 -4.198143482208251953e+00 -4.364749908447265625e+00 -4.267928600311279297e+00 -4.317379951477050781e+00 -4.321979522705078125e+00 -4.355722904205322266e+00 -4.440699577331542969e+00 -4.348211288452148438e+00 -4.531289577484130859e+00 -4.652872085571289062e+00 -4.732914447784423828e+00 -5.055375576019287109e+00 -4.774566173553466797e+00 -4.994661331176757812e+00 -5.057900428771972656e+00 -5.167971611022949219e+00 -5.087885379791259766e+00 -5.064180374145507812e+00 -5.137307167053222656e+00 -5.013472080230712891e+00 -5.023435592651367188e+00 -5.162514686584472656e+00 -5.130126953125000000e+00 -5.280703544616699219e+00 -5.155004024505615234e+00 -5.204276561737060547e+00 -5.290838718414306641e+00 -5.356173515319824219e+00 -5.429523468017578125e+00 -5.475248336791992188e+00 -5.567237377166748047e+00 -5.565846920013427734e+00 -5.681363582611083984e+00 -5.748380661010742188e+00 -5.748220920562744141e+00 -5.859430313110351562e+00 -5.924114227294921875e+00 -6.031547546386718750e+00 -6.010925292968750000e+00 -6.078951835632324219e+00 -6.017288208007812500e+00 -6.014604091644287109e+00 -6.104897975921630859e+00 -6.101499080657958984e+00 -6.169875621795654297e+00 -6.157584190368652344e+00
-2.949341535568237305e+00 -2.957161188125610352e+00 -2.930464029312133789e+00 -2.862606525421142578e+00 -2.886926412582397461e+00 -2.871003627777099609e+00 -2.892423152923583984e+00 -2.859245777130126953e+00 -2.843890666961669922e+00 -2.864833593368530273e+00 -2.824399948120117188e+00 -2.849564075469970703e+00 -2.843501806259155273e+00 -2.799311161041259766e+00 -2.809534072875976562e+00 -2.904168128967285156e+00 -2.866896867752075195e+00 -2.880009889602661133e+00 -2.918626070022583008e+00 -2.923939704895019531e+00 -2.914847135543823242e+00 -2.957431554794311523e+00 -3.019684314727783203e+00 -3.046946525573730469e+00 -3.046680927276611328e+00 -3.097031831741333008e+00 -3.129782199859619141e+00 -3.160636425018310547e+00 -3.201858043670654297e+00 -3.249055624008178711e+00 -3.333976268768310547e+00 -3.385739564895629883e+00 -3.461269378662109375e+00 -3.450132608413696289e+00 -3.508069276809692383e+00 -3.543292999267578125e+00 -3.668575048446655273e+00 -3.644168615341186523e+00 -3.632949590682983398e+00 -3.612602472305297852e+00 -3.619967937469482422e+00 -3.670815467834472656e+00 -3.613315343856811523e+00 -3.548824310302734375e+00 -3.638750791549682617e+00 -3.605757713317871094e+00 -3.605409622192382812e+00 -3.587256908416748047e+00 -3.569482564926147461e+00 -3.616631746292114258e+00 -3.573571205139160156e+00 -3.453560113906860352e+00 -3.513543128967285156e+00 -3.642449617385864258e+00 -3.713068723678588867e+00 -3.709622144699096680e+00 -3.941833019256591797e+00 -4.187171936035156250e+00 -3.814071655273437500e+00 -3.918420314788818359e+00 -3.998524665832519531e+00 -3.914110422134399414e+00 -3.854073524475097656e+00 -4.157539844512939453e+00 -4.304027080535888672e+00 -4.157777786254882812e+00 -4.120216846466064453e+00 -4.106671810150146484e+00 -4.120665550231933594e+00 -4.132043361663818359e+00 -4.200997829437255859e+00 -4.265321254730224609e+00 -4.252980232238769531e+00 -4.364312648773193359e+00 -4.278353214263916016e+00 -4.308250904083251953e+00 -4.367543220520019531e+00 -4.406669139862060547e+00 -4.684544563293457031e+00 -4.749428749084472656e+00 -4.889096260070800781e+00 -4.897749423980712891e+00 -4.880333900451660156e+00 -4.950717926025390625e+00 -4.701561927795410156e+00 -4.855141162872314453e+00 -4.969270706176757812e+00 -4.903598308563232422e+00 -4.924584388732910156e+00 -5.015829563140869141e+00 -5.073779582977294922e+00 -4.995968341827392578e+00 -5.016178607940673828e+00 -5.310272216796875000e+00 -5.190142154693603516e+00 -5.066529273986816406e+00 -5.146412372589111328e+00 -5.263936042785644531e+00 -5.282477855682373047e+00 -5.406141281127929688e+00 -5.408667564392089844e+00 -5.579832553863525391e+00 -5.499785423278808594e+00 -5.536417484283447266e+00 -5.561429023742675781e+00 -5.704985141754150391e+00 -5.694461345672607422e+00 -5.799566745758056641e+00 -5.854777812957763672e+00 -5.873468875885009766e+00 -5.803806781768798828e+00 -5.935274124145507812e+00 -5.956182479858398438e+00 -5.974025249481201172e+00 -6.054514884948730469e+00 -6.092832088470458984e+00 -6.130789279937744141e+00 -6.156283378601074219e+00
-2.933357000350952148e+00 -2.932072877883911133e+00 -2.915933609008789062e+00 -2.879528760910034180e+00 -2.872469902038574219e+00 -2.879756689071655273e+00 -2.879184007644653320e+00 -2.860517740249633789e+00 -2.788963079452514648e+00 -2.837262868881225586e+00 -2.848565340042114258e+00 -2.847289085388183594e+00 -2.853726387023925781e+00 -2.794461250305175781e+00 -2.827495336532592773e+00 -2.864088773727416992e+00 -2.870746374130249023e+00 -2.861515283584594727e+00 -2.861843347549438477e+00 -2.909753799438476562e+00 -2.951347589492797852e+00 -2.996330976486206055e+00 -2.993270158767700195e+00 -3.051764011383056641e+00 -3.050024509429931641e+00 -3.075804948806762695e+00 -3.116883039474487305e+00 -3.139816284179687500e+00 -3.196341276168823242e+00 -3.270565271377563477e+00 -3.356186628341674805e+00 -3.417629718780517578e+00 -3.431625127792358398e+00 -3.558139801025390625e+00 -3.580249071121215820e+00 -3.675078868865966797e+00 -3.689170837402343750e+00 -3.695821523666381836e+00 -3.675559043884277344e+00 -3.672133922576904297e+00 -3.651028394699096680e+00 -3.550235748291015625e+00 -3.590065479278564453e+00 -3.666413307189941406e+00 -3.670290231704711914e+00 -3.557174444198608398e+00 -3.493530988693237305e+00 -3.460246801376342773e+00 -3.667042016983032227e+00 -3.685533046722412109e+00 -3.499736547470092773e+00 -3.495223999023437500e+00 -3.412654876708984375e+00 -3.438940286636352539e+00 -3.557906389236450195e+00 -3.776841878890991211e+00 -3.833342075347900391e+00 -3.899864435195922852e+00 -4.051096916198730469e+00 -4.172127246856689453e+00 -3.873803377151489258e+00 -3.908226728439331055e+00 -3.839893817901611328e+00 -4.010967731475830078e+00 -4.035218238830566406e+00 -4.034001827239990234e+00 -4.016609191894531250e+00 -4.023548126220703125e+00 -4.208286285400390625e+00 -4.219000816345214844e+00 -4.133679389953613281e+00 -4.441787719726562500e+00 -4.330586433410644531e+00 -4.377005100250244141e+00 -4.425449848175048828e+00 -4.514474391937255859e+00 -4.512777328491210938e+00 -4.630080223083496094e+00 -4.717315196990966797e+00 -4.665715217590332031e+00 -4.787970066070556641e+00 -4.792264938354492188e+00 -4.783484458923339844e+00 -4.835095405578613281e+00 -4.792431831359863281e+00 -4.839991569519042969e+00 -4.833703994750976562e+00 -4.896256446838378906e+00 -4.902851581573486328e+00 -5.013849258422851562e+00 -5.042836666107177734e+00 -4.980086326599121094e+00 -4.996005058288574219e+00 -4.949472427368164062e+00 -4.958045482635498047e+00 -5.028443336486816406e+00 -5.121304512023925781e+00 -5.211216926574707031e+00 -5.242938518524169922e+00 -5.312049388885498047e+00 -5.319562435150146484e+00 -5.370182037353515625e+00 -5.432151794433593750e+00 -5.519951820373535156e+00 -5.591755867004394531e+00 -5.658181667327880859e+00 -5.713595867156982422e+00 -5.724580764770507812e+00 -5.837018489837646484e+00 -5.867283344268798828e+00 -5.881798744201660156e+00 -5.902322292327880859e+00 -5.898862361907958984e+00 -5.955551624298095703e+00 -5.974691867828369141e+00 -6.054084300994873047e+00 -6.040831089019775391e+00 -6.114861011505126953e+00
-2.908748149871826172e+00 -2.936007261276245117e+00 -2.905155897140502930e+00 -2.874073505401611328e+00 -2.910254716873168945e+00 -2.890465974807739258e+00 -2.870408058166503906e+00 -2.835987091064453125e+00 -2.857238769531250000e+00 -2.847937583923339844e+00 -2.847337484359741211e+00 -2.832080841064453125e+00 -2.851450204849243164e+00 -2.838951110839843750e+00 -2.828442573547363281e+00 -2.833696365356445312e+00 -2.865685224533081055e+00 -2.884758949279785156e+00 -2.880033254623413086e+00 -2.932012319564819336e+00 -2.942450523376464844e+00 -3.011182069778442383e+00 -3.021797895431518555e+00 -3.036180019378662109e+00 -3.064585208892822266e+00 -3.080223798751831055e+00 -3.107535600662231445e+00 -3.105646848678588867e+00 -3.181943178176879883e+00 -3.272142171859741211e+00 -3.344793796539306641e+00 -3.372523546218872070e+00 -3.433641195297241211e+00 -3.364971876144409180e+00 -3.568298339843750000e+00 -3.640129327774047852e+00 -3.642421722412109375e+00 -3.746742248535156250e+00 -3.967840909957885742e+00 -3.741453409194946289e+00 -3.677227497100830078e+00 -3.549421548843383789e+00 -3.550974607467651367e+00 -3.755710840225219727e+00 -3.705634117126464844e+00 -3.630935668945312500e+00 -3.487168312072753906e+00 -3.554558515548706055e+00 -3.493102788925170898e+00 -3.586118698120117188e+00 -3.561601400375366211e+00 -3.525655269622802734e+00 -3.562555551528930664e+00 -3.475830793380737305e+00 -3.462375164031982422e+00 -3.678782463073730469e+00 -3.776630878448486328e+00 -3.973060607910156250e+00 -4.024701118469238281e+00 -4.087532520294189453e+00 -3.919742584228515625e+00 -4.005448341369628906e+00 -3.864776611328125000e+00 -3.921682596206665039e+00 -3.997819423675537109e+00 -4.044377326965332031e+00 -4.046831130981445312e+00 -4.057631492614746094e+00 -4.274272441864013672e+00 -4.388766288757324219e+00 -4.251277923583984375e+00 -4.397043228149414062e+00 -4.518588066101074219e+00 -4.397798061370849609e+00 -4.666113376617431641e+00 -4.389463901519775391e+00 -4.471957683563232422e+00 -4.579461574554443359e+00 -4.585529327392578125e+00 -4.873436450958251953e+00 -4.625455379486083984e+00 -4.679137706756591797e+00 -4.809612274169921875e+00 -4.849398612976074219e+00 -4.752401828765869141e+00 -4.810148239135742188e+00 -4.765750408172607422e+00 -5.034418582916259766e+00 -4.946438789367675781e+00 -4.808200836181640625e+00 -5.020505905151367188e+00 -5.002517700195312500e+00 -4.929500579833984375e+00 -5.019793987274169922e+00 -5.082707405090332031e+00 -5.099369049072265625e+00 -5.124680519104003906e+00 -5.193503856658935547e+00 -5.207046985626220703e+00 -5.202578544616699219e+00 -5.243499279022216797e+00 -5.294271945953369141e+00 -5.428956985473632812e+00 -5.452621936798095703e+00 -5.539107799530029297e+00 -5.635364532470703125e+00 -5.590841293334960938e+00 -5.661905765533447266e+00 -5.781716823577880859e+00 -5.826251029968261719e+00 -5.874096393585205078e+00 -5.845349788665771484e+00 -5.905026912689208984e+00 -5.920401096343994141e+00 -5.962447166442871094e+00 -6.062401294708251953e+00 -6.074758052825927734e+00 -6.116714954376220703e+00
-2.865948200225830078e+00 -2.943516969680786133e+00 -2.926858186721801758e+00 -2.885755300521850586e+00 -2.873084545135498047e+00 -2.833799362182617188e+00 -2.849528551101684570e+00 -2.855617284774780273e+00 -2.841927051544189453e+00 -2.832947254180908203e+00 -2.821867465972900391e+00 -2.849408864974975586e+00 -2.824612379074096680e+00 -2.851068973541259766e+00 -2.795896768569946289e+00 -2.797374486923217773e+00 -2.816803932189941406e+00 -2.861638545989990234e+00 -2.844867944717407227e+00 -2.934626579284667969e+00 -2.956652879714965820e+00 -2.994496822357177734e+00 -3.000285863876342773e+00 -3.025702476501464844e+00 -2.984182119369506836e+00 -3.106709241867065430e+00 -3.120182752609252930e+00 -3.150874376296997070e+00 -3.206094503402709961e+00 -3.309913873672485352e+00 -3.376250505447387695e+00 -3.475216388702392578e+00 -3.507663011550903320e+00 -3.485993862152099609e+00 -3.610678434371948242e+00 -3.644800901412963867e+00 -3.766704797744750977e+00 -3.749196529388427734e+00 -3.778778791427612305e+00 -3.786135673522949219e+00 -3.714811086654663086e+00 -3.745180845260620117e+00 -3.673147201538085938e+00 -3.551250934600830078e+00 -3.688193082809448242e+00 -3.611253023147583008e+00 -3.463711261749267578e+00 -3.617262363433837891e+00 -3.628388643264770508e+00 -3.656025171279907227e+00 -3.428460121154785156e+00 -3.521042346954345703e+00 -3.513972282409667969e+00 -3.409228086471557617e+00 -3.476824760437011719e+00 -3.653842687606811523e+00 -3.865890979766845703e+00 -3.848387241363525391e+00 -4.054856777191162109e+00 -4.001225471496582031e+00 -4.101982593536376953e+00 -4.013802051544189453e+00 -3.990448474884033203e+00 -4.028744220733642578e+00 -4.021286964416503906e+00 -4.267748832702636719e+00 -4.152988433837890625e+00 -4.148943424224853516e+00 -4.312423229217529297e+00 -4.282649040222167969e+00 -4.435507297515869141e+00 -4.299073696136474609e+00 -4.256896495819091797e+00 -4.309703826904296875e+00 -4.370219707489013672e+00 -4.391701221466064453e+00 -4.534938812255859375e+00 -4.577609062194824219e+00 -4.586400508880615234e+00 -4.499848842620849609e+00 -4.527784824371337891e+00 -4.738949775695800781e+00 -4.780254840850830078e+00 -4.653914928436279297e+00 -4.841830253601074219e+00 -4.791824340820312500e+00 -4.784502506256103516e+00 -4.832812786102294922e+00 -4.879575729370117188e+00 -4.893619537353515625e+00 -4.973241806030273438e+00 -4.936428070068359375e+00 -4.878219127655029297e+00 -5.005641460418701172e+00 -5.039424896240234375e+00 -5.117002487182617188e+00 -5.195476531982421875e+00 -5.219819068908691406e+00 -5.183170318603515625e+00 -5.136292934417724609e+00 -5.187885284423828125e+00 -5.251113414764404297e+00 -5.343985080718994141e+00 -5.373843669891357422e+00 -5.459564685821533203e+00 -5.499054431915283203e+00 -5.593982696533203125e+00 -5.616757392883300781e+00 -5.656066894531250000e+00 -5.773182868957519531e+00 -5.806227684020996094e+00 -5.824238300323486328e+00 -5.894822120666503906e+00 -5.900968074798583984e+00 -5.921260833740234375e+00 -5.960305690765380859e+00 -6.022750854492187500e+00 -6.103287696838378906e+00
-2.901586771011352539e+00 -2.912583589553833008e+00 -2.919141054153442383e+00 -2.918876647949218750e+00 -2.858064174652099609e+00 -2.875131130218505859e+00 -2.839449167251586914e+00 -2.836696386337280273e+00 -2.852480173110961914e+00 -2.812868833541870117e+00 -2.838015317916870117e+00 -2.810265064239501953e+00 -2.787443399429321289e+00 -2.809094667434692383e+00 -2.775308847427368164e+00 -2.796877622604370117e+00 -2.835658311843872070e+00 -2.904368400573730469e+00 -2.893126249313354492e+00 -2.923316240310668945e+00 -2.961082935333251953e+00 -3.005248308181762695e+00 -3.004448413848876953e+00 -3.073050498962402344e+00 -3.088377237319946289e+00 -3.118795633316040039e+00 -3.172371864318847656e+00 -3.260993003845214844e+00 -3.246698141098022461e+00 -3.399595975875854492e+00 -3.455401897430419922e+00 -3.430103063583374023e+00 -3.586491107940673828e+00 -3.470613479614257812e+00 -3.577440738677978516e+00 -3.728883028030395508e+00 -3.723536968231201172e+00 -3.840121746063232422e+00 -3.761797666549682617e+00 -3.645481824874877930e+00 -3.706785202026367188e+00 -3.756489753723144531e+00 -3.654604434967041016e+00 -3.709760904312133789e+00 -3.661266565322875977e+00 -3.664011716842651367e+00 -3.566859722137451172e+00 -3.558217287063598633e+00 -3.644114971160888672e+00 -3.585823059082031250e+00 -3.550221920013427734e+00 -3.568139553070068359e+00 -3.417339086532592773e+00 -3.767121791839599609e+00 -3.779000043869018555e+00 -3.546083927154541016e+00 -3.812441110610961914e+00 -3.840158462524414062e+00 -3.993271350860595703e+00 -4.014600276947021484e+00 -4.138338088989257812e+00 -4.113309383392333984e+00 -4.147348403930664062e+00 -4.271822452545166016e+00 -4.263739109039306641e+00 -4.287000179290771484e+00 -4.390919685363769531e+00 -4.383796215057373047e+00 -4.372025489807128906e+00 -4.450181484222412109e+00 -4.322756290435791016e+00 -4.245254993438720703e+00 -4.301166534423828125e+00 -4.344441413879394531e+00 -4.324891567230224609e+00 -4.412262916564941406e+00 -4.438489913940429688e+00 -4.551408767700195312e+00 -4.580939292907714844e+00 -4.550096035003662109e+00 -4.626999855041503906e+00 -4.840589523315429688e+00 -4.783871650695800781e+00 -4.659274578094482422e+00 -4.762771606445312500e+00 -4.737129211425781250e+00 -4.753360748291015625e+00 -4.785686969757080078e+00 -4.897607326507568359e+00 -4.914975166320800781e+00 -4.834759712219238281e+00 -4.871821403503417969e+00 -4.965643405914306641e+00 -4.939195632934570312e+00 -5.039887428283691406e+00 -5.061702728271484375e+00 -5.166456699371337891e+00 -5.206425666809082031e+00 -5.211451530456542969e+00 -5.171557426452636719e+00 -5.146193504333496094e+00 -5.132246971130371094e+00 -5.293599605560302734e+00 -5.330716133117675781e+00 -5.360861301422119141e+00 -5.473590850830078125e+00 -5.548303604125976562e+00 -5.570473194122314453e+00 -5.615361690521240234e+00 -5.689790248870849609e+00 -5.745947837829589844e+00 -5.789253234863281250e+00 -5.845250606536865234e+00 -5.888565540313720703e+00 -5.926748275756835938e+00 -5.934143543243408203e+00 -5.990863800048828125e+00 -6.045426845550537109e+00
-2.959456443786621094e+00 -2.899189949035644531e+00 -2.884350061416625977e+00 -2.871110200881958008e+00 -2.879892826080322266e+00 -2.760028600692749023e+00 -2.854277610778808594e+00 -2.777510881423950195e+00 -2.814004421234130859e+00 -2.856698751449584961e+00 -2.804123163223266602e+00 -2.770992279052734375e+00 -2.812773466110229492e+00 -2.795187234878540039e+00 -2.830105066299438477e+00 -2.803676605224609375e+00 -2.885750770568847656e+00 -2.844304561614990234e+00 -2.859832286834716797e+00 -2.928238391876220703e+00 -2.953750610351562500e+00 -3.014904737472534180e+00 -3.076414585113525391e+00 -3.093213081359863281e+00 -3.110892772674560547e+00 -3.169690132141113281e+00 -3.197641611099243164e+00 -3.269464015960693359e+00 -3.305783510208129883e+00 -3.338907003402709961e+00 -3.383512973785400391e+00 -3.451068639755249023e+00 -3.533404350280761719e+00 -3.510074138641357422e+00 -3.606284379959106445e+00 -3.640785694122314453e+00 -3.944604396820068359e+00 -3.748128652572631836e+00 -3.783815622329711914e+00 -3.707880020141601562e+00 -3.742102384567260742e+00 -3.734586715698242188e+00 -3.746688604354858398e+00 -3.601664304733276367e+00 -3.647007226943969727e+00 -3.699383974075317383e+00 -3.622035741806030273e+00 -3.405649185180664062e+00 -3.681301116943359375e+00 -3.594066143035888672e+00 -3.577764749526977539e+00 -3.454991579055786133e+00 -3.544674396514892578e+00 nan -3.862653970718383789e+00 -3.788495302200317383e+00 -3.849924564361572266e+00 nan -3.879694700241088867e+00 -4.029486656188964844e+00 -4.171623229980468750e+00 -4.098756313323974609e+00 -4.256195068359375000e+00 -4.316946029663085938e+00 -4.284982204437255859e+00 -4.440222263336181641e+00 -4.405651569366455078e+00 -4.417843818664550781e+00 -4.338892936706542969e+00 -4.313940048217773438e+00 -4.310392379760742188e+00 -4.342386722564697266e+00 -4.434435367584228516e+00 -4.369651317596435547e+00 -4.355113506317138672e+00 -4.296044826507568359e+00 -4.351253986358642578e+00 -4.460832595825195312e+00 -4.532630443572998047e+00 -4.552823066711425781e+00 -4.619499206542968750e+00 -4.715302944183349609e+00 -4.688947200775146484e+00 -4.740124702453613281e+00 -4.894995689392089844e+00 -4.730086803436279297e+00 -4.700121402740478516e+00 -4.818286418914794922e+00 -4.982983589172363281e+00 -4.956299781799316406e+00 -4.876673221588134766e+00 -4.874417304992675781e+00 -4.881751060485839844e+00 -4.957437038421630859e+00 -5.055921077728271484e+00 -5.049917697906494141e+00 -5.081429958343505859e+00 -5.057258605957031250e+00 -5.060031890869140625e+00 -5.250706672668457031e+00 -5.201416492462158203e+00 -5.229176044464111328e+00 -5.268390655517578125e+00 -5.221227169036865234e+00 -5.289194107055664062e+00 -5.407407760620117188e+00 -5.538469791412353516e+00 -5.577074050903320312e+00 -5.614757061004638672e+00 -5.636616230010986328e+00 -5.716208457946777344e+00 -5.782731533050537109e+00 -5.816912174224853516e+00 -5.835275173187255859e+00 -5.855901718139648438e+00 -5.940668106079101562e+00 -5.976855278015136719e+00 -6.029554843902587891e+00
-2.958763599395751953e+00 -2.911980867385864258e+00 -2.863554239273071289e+00 -2.909316778182983398e+00 -2.890263557434082031e+00 -2.844212770462036133e+00 -2.818212747573852539e+00 -2.810343742370605469e+00 -2.815376758575439453e+00 -2.817240715026855469e+00 -2.836758375167846680e+00 -2.820380210876464844e+00 -2.774708747863769531e+00 -2.793902635574340820e+00 -2.845471143722534180e+00 -2.840157985687255859e+00 -2.879717111587524414e+00 -2.887009620666503906e+00 -2.930662155151367188e+00 -2.907065153121948242e+00 -2.981411933898925781e+00 -3.029377937316894531e+00 -3.080783843994140625e+00 -3.124399662017822266e+00 -3.149140357971191406e+00 -3.120068073272705078e+00 -3.176561117172241211e+00 -3.242676019668579102e+00 -3.289341688156127930e+00 -3.359654188156127930e+00 -3.471489429473876953e+00 -3.498613595962524414e+00 -3.476511716842651367e+00 -3.486412525177001953e+00 -3.596006631851196289e+00 -3.597100496292114258e+00 -3.737331151962280273e+00 -3.715562820434570312e+00 -3.796095371246337891e+00 -3.736780881881713867e+00 -3.686419486999511719e+00 -3.770487546920776367e+00 -3.724634647369384766e+00 -3.725146770477294922e+00 -3.689512252807617188e+00 -3.656651020050048828e+00 -3.703214883804321289e+00 -3.533973932266235352e+00 -3.447818994522094727e+00 -3.644208908081054688e+00 -3.621000051498413086e+00 -3.510693073272705078e+00 -3.666140556335449219e+00 -3.733170032501220703e+00 -3.793642282485961914e+00 nan -3.862291336059570312e+00 -4.026738166809082031e+00 -4.114999771118164062e+00 -4.129419326782226562e+00 -4.195519924163818359e+00 -4.245000839233398438e+00 nan -4.185234546661376953e+00 -4.231577873229980469e+00 -4.347630023956298828e+00 -4.381278038024902344e+00 -4.333490371704101562e+00 -4.123148918151855469e+00 -4.312532901763916016e+00 -4.308107852935791016e+00 -4.367321968078613281e+00 -4.338260173797607422e+00 -4.337022781372070312e+00 -4.352198123931884766e+00 -4.359122753143310547e+00 -4.371270179748535156e+00 -4.460337162017822266e+00 -4.560738086700439453e+00 -4.550169944763183594e+00 -4.596043109893798828e+00 -4.595096588134765625e+00 -4.700675487518310547e+00 -4.767186641693115234e+00 -4.777999877929687500e+00 -4.715313911437988281e+00 -4.783249378204345703e+00 -4.782449722290039062e+00 -4.907998085021972656e+00 -4.892066955566406250e+00 -4.932866573333740234e+00 -4.928856849670410156e+00 -4.861368656158447266e+00 -4.919204235076904297e+00 -5.046271324157714844e+00 -5.059750080108642578e+00 -5.011674880981445312e+00 -5.044241428375244141e+00 -5.117177486419677734e+00 -5.214560508728027344e+00 -5.244287014007568359e+00 -5.267680644989013672e+00 -5.286948204040527344e+00 -5.279636383056640625e+00 -5.236990928649902344e+00 -5.326025009155273438e+00 -5.448983669281005859e+00 -5.528775215148925781e+00 -5.626106739044189453e+00 -5.604336738586425781e+00 -5.655227184295654297e+00 -5.738285541534423828e+00 -5.816783905029296875e+00 -5.788798809051513672e+00 -5.809929370880126953e+00 -5.892013549804687500e+00 -5.934404373168945312e+00 -6.027462482452392578e+00
-2.898014545440673828e+00 -2.906937360763549805e+00 -2.879271030426025391e+00 -2.886677265167236328e+00 -2.856395721435546875e+00 -2.845923662185668945e+00 -2.816444873809814453e+00 -2.829609394073486328e+00 -2.820260286331176758e+00 -2.779699802398681641e+00 -2.848420143127441406e+00 -2.837234258651733398e+00 -2.810155630111694336e+00 -2.857772827148437500e+00 -2.821403741836547852e+00 -2.888016223907470703e+00 -2.864285707473754883e+00 -2.904611110687255859e+00 -2.956684589385986328e+00 -2.960511922836303711e+00 -2.906207084655761719e+00 -3.044459104537963867e+00 -3.095913648605346680e+00 -3.175726175308227539e+00 -3.142236948013305664e+00 -3.232464313507080078e+00 -3.207564115524291992e+00 -3.209901094436645508e+00 -3.366883754730224609e+00 -3.419531822204589844e+00 -3.388007402420043945e+00 -3.524377822875976562e+00 -3.542746067047119141e+00 -3.751118421554565430e+00 -3.681224107742309570e+00 -3.709419250488281250e+00 -3.751336574554443359e+00 -3.797267913818359375e+00 -3.781357765197753906e+00 -3.858068466186523438e+00 -3.539361715316772461e+00 -3.890547275543212891e+00 -3.842923402786254883e+00 -3.800001621246337891e+00 -3.661822557449340820e+00 -3.518808841705322266e+00 -3.590095996856689453e+00 -3.505724668502807617e+00 -3.501845598220825195e+00 -3.624593734741210938e+00 -3.716480970382690430e+00 nan nan -3.773000001907348633e+00 nan nan nan nan -4.145999908447265625e+00 nan -4.215555667877197266e+00 nan -4.341688632965087891e+00 -4.182980537414550781e+00 -4.191022872924804688e+00 -4.208085536956787109e+00 -4.299068450927734375e+00 -4.249889373779296875e+00 -4.182079315185546875e+00 -4.237349510192871094e+00 -4.307833194732666016e+00 -4.298745632171630859e+00 -4.322885036468505859e+00 -4.332944869995117188e+00 -4.390821933746337891e+00 -4.388443470001220703e+00 -4.413109779357910156e+00 -4.434456825256347656e+00 -4.487541198730468750e+00 -4.523931980133056641e+00 -4.654101848602294922e+00 -4.664142131805419922e+00 -4.665142536163330078e+00 -4.716314315795898438e+00 -4.720541000366210938e+00 -4.650146007537841797e+00 -4.783995151519775391e+00 -4.844684600830078125e+00 -4.921465873718261719e+00 -4.829261779785156250e+00 -4.907686233520507812e+00 -4.880525112152099609e+00 -4.926437377929687500e+00 -4.952907562255859375e+00 -4.991223335266113281e+00 -5.040278434753417969e+00 -5.036467552185058594e+00 -5.006369590759277344e+00 -5.041205883026123047e+00 -5.064843654632568359e+00 -5.134055137634277344e+00 -5.214941501617431641e+00 -5.283772945404052734e+00 -5.317443370819091797e+00 -5.302664279937744141e+00 -5.321302890777587891e+00 -5.380220890045166016e+00 -5.485888004302978516e+00 -5.576666355133056641e+00 -5.627638816833496094e+00 -5.702369689941406250e+00 -5.683971881866455078e+00 -5.756592273712158203e+00 -5.795075416564941406e+00 -5.835298538208007812e+00 -5.862970829010009766e+00 -5.927885055541992188e+00 -6.005161762237548828e+00
-2.872438192367553711e+00 -2.922725200653076172e+00 -2.765075445175170898e+00 -2.783618450164794922e+00 -2.889324426651000977e+00 -2.848834991455078125e+00 -2.841973304748535156e+00 -2.873355627059936523e+00 -2.845684289932250977e+00 -2.881478548049926758e+00 -2.951293945312500000e+00 -2.825435161590576172e+00 -2.763111829757690430e+00 -2.917611360549926758e+00 -2.862415552139282227e+00 -2.875166177749633789e+00 -2.782349824905395508e+00 -2.887718200683593750e+00 -2.883616924285888672e+00 -2.929264068603515625e+00 -2.945004463195800781e+00 -3.017824649810791016e+00 -3.110223054885864258e+00 -3.124405384063720703e+00 -3.183376789093017578e+00 -3.195308923721313477e+00 -3.238805055618286133e+00 -3.334618568420410156e+00 -3.333055496215820312e+00 -3.394954681396484375e+00 -3.509528160095214844e+00 -3.470355987548828125e+00 -3.589723587036132812e+00 -3.704165458679199219e+00 -3.723451375961303711e+00 -3.718244791030883789e+00 -3.617618799209594727e+00 -3.675770282745361328e+00 -3.699511766433715820e+00 -3.885792493820190430e+00 -3.850869655609130859e+00 -3.897043466567993164e+00 -3.888565063476562500e+00 -3.778960227966308594e+00 -3.591893911361694336e+00 -3.599985837936401367e+00 -3.491448879241943359e+00 -3.672643423080444336e+00 -3.682273387908935547e+00 -3.772968769073486328e+00 -3.766994953155517578e+00 nan nan nan nan nan nan -4.103170871734619141e+00 -4.242000102996826172e+00 -4.157000064849853516e+00 -4.183435916900634766e+00 -4.211627483367919922e+00 -4.189002990722656250e+00 -4.185503959655761719e+00 -4.202827930450439453e+00 -4.134962558746337891e+00 -4.132526397705078125e+00 -4.207075595855712891e+00 -4.189366817474365234e+00 -4.195461273193359375e+00 -4.341252803802490234e+00 -4.354920864105224609e+00 -4.353318214416503906e+00 -4.286378383636474609e+00 -4.320227146148681641e+00 -4.427308082580566406e+00 -4.524127483367919922e+00 -4.512423515319824219e+00 -4.514223575592041016e+00 -4.685113430023193359e+00 -4.601929187774658203e+00 -4.658810138702392578e+00 -4.618661403656005859e+00 -4.603447914123535156e+00 -4.662745952606201172e+00 -4.737956047058105469e+00 -4.745632171630859375e+00 -4.808843612670898438e+00 -4.793447494506835938e+00 -4.818004608154296875e+00 -4.832098960876464844e+00 -4.811732769012451172e+00 -4.872326850891113281e+00 -4.913547039031982422e+00 -4.949032306671142578e+00 -4.933095455169677734e+00 -5.030584812164306641e+00 -5.019658088684082031e+00 -5.030714988708496094e+00 -5.099638462066650391e+00 -5.138500690460205078e+00 -5.170466423034667969e+00 -5.256584167480468750e+00 -5.272036552429199219e+00 -5.329381465911865234e+00 -5.378673076629638672e+00 -5.413136005401611328e+00 -5.458429336547851562e+00 -5.515748500823974609e+00 -5.615907669067382812e+00 -5.561633586883544922e+00 -5.644463062286376953e+00 -5.678364753723144531e+00 -5.795896053314208984e+00 -5.832818984985351562e+00 -5.852017402648925781e+00 -5.915636539459228516e+00 -5.948727607727050781e+00
-2.909289360046386719e+00 -2.897747039794921875e+00 -2.883258581161499023e+00 -2.798097610473632812e+00 -2.868615627288818359e+00 -2.870476484298706055e+00 -2.890712261199951172e+00 -2.906696557998657227e+00 -2.884113073348999023e+00 -2.845029592514038086e+00 -2.913511753082275391e+00 -2.845300436019897461e+00 -2.887915611267089844e+00 -2.854188442230224609e+00 -2.985758304595947266e+00 -2.835486888885498047e+00 -2.901221275329589844e+00 -2.846727609634399414e+00 -2.972161293029785156e+00 -2.963427782058715820e+00 -2.972222805023193359e+00 -2.920289754867553711e+00 -3.069230794906616211e+00 -3.212181091308593750e+00 -3.220993280410766602e+00 -3.280420064926147461e+00 -3.268604993820190430e+00 -3.251082181930541992e+00 -3.492166042327880859e+00 -3.434569597244262695e+00 -3.549808979034423828e+00 -3.553997993469238281e+00 -3.549953937530517578e+00 -3.594852924346923828e+00 -3.695034980773925781e+00 -3.603886604309082031e+00 -3.578000068664550781e+00 -3.755344629287719727e+00 -3.701855659484863281e+00 -3.816488504409790039e+00 -3.930631399154663086e+00 -3.965882778167724609e+00 -3.777805805206298828e+00 -3.803817272186279297e+00 -3.618623733520507812e+00 -3.627856969833374023e+00 -3.950612068176269531e+00 -3.784248590469360352e+00 -3.723227262496948242e+00 -3.853730678558349609e+00 nan nan nan nan nan -3.929793834686279297e+00 -3.974310159683227539e+00 -4.032838821411132812e+00 -3.948031425476074219e+00 -4.070537567138671875e+00 -4.230498790740966797e+00 -3.978306531906127930e+00 -4.063739299774169922e+00 -4.095957756042480469e+00 -4.041152954101562500e+00 -4.068199157714843750e+00 -4.210555553436279297e+00 -4.161709308624267578e+00 -4.122432708740234375e+00 -4.191700458526611328e+00 -4.229120731353759766e+00 -4.263969898223876953e+00 -4.371478557586669922e+00 -4.224021434783935547e+00 -4.336509227752685547e+00 -4.392841339111328125e+00 -4.348281860351562500e+00 -4.495038509368896484e+00 -4.592132568359375000e+00 -4.767391681671142578e+00 -4.634005546569824219e+00 -4.669393539428710938e+00 -4.629434108734130859e+00 -4.589482307434082031e+00 -4.610692977905273438e+00 -4.796405792236328125e+00 -4.776747226715087891e+00 -4.781925678253173828e+00 -4.800874233245849609e+00 -4.850593566894531250e+00 -4.767950057983398438e+00 -4.819367408752441406e+00 -4.800086021423339844e+00 -4.842789173126220703e+00 -4.921866893768310547e+00 -4.911611080169677734e+00 -4.914508342742919922e+00 -4.982651233673095703e+00 -5.007237911224365234e+00 -5.070164203643798828e+00 -5.061259746551513672e+00 -5.041318416595458984e+00 -5.123503684997558594e+00 -5.195513248443603516e+00 -5.264955520629882812e+00 -5.337080478668212891e+00 -5.413665771484375000e+00 -5.429739952087402344e+00 -5.429950237274169922e+00 -5.538809776306152344e+00 -5.560933589935302734e+00 -5.619948863983154297e+00 -5.655694961547851562e+00 -5.728529453277587891e+00 -5.744935512542724609e+00 -5.755583286285400391e+00 -5.841433525085449219e+00 -5.899660110473632812e+00
-2.912181615829467773e+00 -2.956602811813354492e+00 -2.878712892532348633e+00 -2.884806632995605469e+00 -2.906335115432739258e+00 -2.840231180191040039e+00 -2.838790893554687500e+00 -2.850520849227905273e+00 -2.885317087173461914e+00 -2.978572607040405273e+00 -2.895390510559082031e+00 -2.923415184020996094e+00 -2.893384218215942383e+00 -2.904391050338745117e+00 -2.962769508361816406e+00 -2.805525302886962891e+00 -2.882015466690063477e+00 -2.916700124740600586e+00 -2.913063049316406250e+00 -2.987102508544921875e+00 -2.962488174438476562e+00 -3.006735801696777344e+00 -2.910815238952636719e+00 -3.083524465560913086e+00 -3.194704771041870117e+00 -3.271742105484008789e+00 -3.366414546966552734e+00 -3.301458597183227539e+00 -3.391635179519653320e+00 -3.441177368164062500e+00 -3.396832466125488281e+00 -3.676160573959350586e+00 -3.543520450592041016e+00 -3.650063514709472656e+00 -3.573677539825439453e+00 -3.702826261520385742e+00 -3.854768276214599609e+00 -3.776553869247436523e+00 -3.713487386703491211e+00 -3.826324939727783203e+00 -3.936795234680175781e+00 -3.923193693161010742e+00 -3.990417242050170898e+00 -3.845708131790161133e+00 -3.798955678939819336e+00 -3.811454296112060547e+00 -3.821014165878295898e+00 -3.957449913024902344e+00 nan nan nan nan nan nan nan -3.824884653091430664e+00 -3.838057994842529297e+00 -3.920814275741577148e+00 nan -4.201351165771484375e+00 -4.019528865814208984e+00 -3.815764427185058594e+00 -4.043070316314697266e+00 -4.075487136840820312e+00 -4.139159679412841797e+00 -4.206890583038330078e+00 -4.123800277709960938e+00 -4.130844593048095703e+00 -4.153655529022216797e+00 -4.196522712707519531e+00 -4.170189380645751953e+00 -4.262513637542724609e+00 -4.298629760742187500e+00 -4.279796123504638672e+00 -4.291501522064208984e+00 -4.358161449432373047e+00 -4.433691501617431641e+00 -4.465127468109130859e+00 -4.434519290924072266e+00 -4.478422164916992188e+00 -4.557226181030273438e+00 -4.524257183074951172e+00 -4.567440032958984375e+00 -4.525842666625976562e+00 -4.674026489257812500e+00 -4.727598667144775391e+00 -4.763562679290771484e+00 -4.748394966125488281e+00 -4.794660091400146484e+00 -4.781868934631347656e+00 -4.847968101501464844e+00 -4.852240085601806641e+00 -4.850022315979003906e+00 -4.860563278198242188e+00 -4.855610847473144531e+00 -4.886693000793457031e+00 -4.875410079956054688e+00 -4.929149150848388672e+00 -4.962809562683105469e+00 -5.015453815460205078e+00 -5.058103561401367188e+00 -5.108553886413574219e+00 -5.099296092987060547e+00 -5.121342182159423828e+00 -5.216205120086669922e+00 -5.316096305847167969e+00 -5.410301685333251953e+00 -5.454101085662841797e+00 -5.457759857177734375e+00 -5.421375274658203125e+00 -5.471940517425537109e+00 -5.574531078338623047e+00 -5.672995567321777344e+00 -5.730860233306884766e+00 -5.740782737731933594e+00 -5.712432861328125000e+00 -5.813491821289062500e+00 -5.868645668029785156e+00
-2.818631410598754883e+00 -2.943791627883911133e+00 -2.734028339385986328e+00 -2.897464275360107422e+00 -2.793642520904541016e+00 -2.849049329757690430e+00 -2.665698051452636719e+00 -2.777940988540649414e+00 -2.889417171478271484e+00 -2.958795547485351562e+00 -2.898480415344238281e+00 -2.948275566101074219e+00 -2.898988008499145508e+00 -2.953582286834716797e+00 -2.883728265762329102e+00 -2.962660312652587891e+00 -3.071687459945678711e+00 -2.896905183792114258e+00 -2.948937416076660156e+00 -2.978044271469116211e+00 -3.091645002365112305e+00 -3.026291608810424805e+00 -2.982796430587768555e+00 -3.069609642028808594e+00 -3.236977100372314453e+00 -3.184335947036743164e+00 -3.222522497177124023e+00 -3.339905977249145508e+00 -3.372864246368408203e+00 -3.426036596298217773e+00 -3.516662836074829102e+00 -3.475981950759887695e+00 -3.458461046218872070e+00 -3.607925176620483398e+00 -3.843247413635253906e+00 -3.610005617141723633e+00 -4.180947780609130859e+00 -3.883409738540649414e+00 -3.881170034408569336e+00 -3.841289043426513672e+00 -4.024922370910644531e+00 -4.066526889801025391e+00 -3.905154705047607422e+00 -3.804712772369384766e+00 -3.970070362091064453e+00 nan -4.070257186889648438e+00 nan nan nan nan nan nan nan -3.707214355468750000e+00 -3.768435478210449219e+00 -3.839928150177001953e+00 -3.672656059265136719e+00 -3.903206825256347656e+00 -4.068364143371582031e+00 -4.128410339355468750e+00 -3.958864212036132812e+00 -4.113139629364013672e+00 -4.158712863922119141e+00 -4.055869102478027344e+00 -4.051997661590576172e+00 -4.046307086944580078e+00 -4.071672439575195312e+00 -4.181826591491699219e+00 -4.195737838745117188e+00 -4.234978675842285156e+00 -4.243384361267089844e+00 -4.254825115203857422e+00 -4.274112701416015625e+00 -4.235761165618896484e+00 -4.312369346618652344e+00 -4.315203666687011719e+00 -4.379736423492431641e+00 -4.375076293945312500e+00 -4.434950351715087891e+00 -4.505845546722412109e+00 -4.442863941192626953e+00 -4.439617633819580078e+00 -4.481264591217041016e+00 -4.629951000213623047e+00 -4.783083438873291016e+00 -4.710575580596923828e+00 -4.715506076812744141e+00 -4.750068664550781250e+00 -4.744328498840332031e+00 -4.793262481689453125e+00 -4.785603046417236328e+00 -4.842063903808593750e+00 -4.940466403961181641e+00 -4.960318088531494141e+00 -4.909858226776123047e+00 -4.817528724670410156e+00 -4.843189716339111328e+00 -4.882167816162109375e+00 -5.001728057861328125e+00 -5.051494598388671875e+00 -5.062263011932373047e+00 -5.080116271972656250e+00 -5.184276580810546875e+00 -5.210653305053710938e+00 -5.278335571289062500e+00 -5.394358634948730469e+00 -5.432998180389404297e+00 -5.423184871673583984e+00 -5.410839557647705078e+00 -5.439321517944335938e+00 -5.579497814178466797e+00 -5.637624263763427734e+00 -5.687629699707031250e+00 -5.673958301544189453e+00 -5.728166103363037109e+00 -5.793992042541503906e+00 -5.876318931579589844e+00
-2.991755962371826172e+00 -2.927775382995605469e+00 -2.929459095001220703e+00 -2.955063343048095703e+00 -2.955661296844482422e+00 -2.615139245986938477e+00 -2.906533718109130859e+00 -2.919986724853515625e+00 -2.786933898925781250e+00 -2.948647975921630859e+00 -2.962821006774902344e+00 -2.964026927947998047e+00 -2.988931655883789062e+00 -2.988822698593139648e+00 -2.918569087982177734e+00 -3.005511760711669922e+00 -3.026899814605712891e+00 -2.963115453720092773e+00 -2.966161012649536133e+00 -3.005180835723876953e+00 -3.031874895095825195e+00 -3.034591913223266602e+00 -2.885998964309692383e+00 -3.170633792877197266e+00 -3.205692291259765625e+00 -3.181583642959594727e+00 -3.298316717147827148e+00 -3.254709482192993164e+00 -3.299523830413818359e+00 -3.315611124038696289e+00 -3.345381736755371094e+00 -3.613204717636108398e+00 -3.732831954956054688e+00 -3.734157323837280273e+00 -3.790162563323974609e+00 nan -4.013278484344482422e+00 -3.886521339416503906e+00 -4.083652496337890625e+00 -3.921000003814697266e+00 -4.088467121124267578e+00 -4.086390495300292969e+00 -4.049411773681640625e+00 -3.971237421035766602e+00 -4.056790828704833984e+00 nan nan -3.839999914169311523e+00 -3.772000074386596680e+00 nan nan nan -3.566339254379272461e+00 -3.481685400009155273e+00 -3.549487590789794922e+00 -3.650315523147583008e+00 nan -3.710009574890136719e+00 -3.632966995239257812e+00 -3.663315773010253906e+00 -3.945783376693725586e+00 -3.752578020095825195e+00 -3.999838829040527344e+00 -4.075536251068115234e+00 -4.089148998260498047e+00 -3.982739448547363281e+00 -4.092720508575439453e+00 -3.965222597122192383e+00 -4.137847900390625000e+00 -4.193634033203125000e+00 -4.293455600738525391e+00 -4.223485946655273438e+00 -4.212610244750976562e+00 -4.281245708465576172e+00 -4.244111537933349609e+00 -4.246137619018554688e+00 -4.302708148956298828e+00 -4.369814395904541016e+00 -4.381386756896972656e+00 -4.515520095825195312e+00 -4.509118556976318359e+00 -4.422918319702148438e+00 -4.421706676483154297e+00 -4.471581935882568359e+00 -4.539741039276123047e+00 -4.548976898193359375e+00 -4.681478500366210938e+00 -4.705892562866210938e+00 -4.680485248565673828e+00 -4.743462562561035156e+00 -4.810921669006347656e+00 -4.786048889160156250e+00 -4.806271076202392578e+00 -4.842852115631103516e+00 -4.862412452697753906e+00 -4.811318397521972656e+00 -4.830767154693603516e+00 -4.860135078430175781e+00 -4.988888263702392578e+00 -5.018731117248535156e+00 -5.045523166656494141e+00 -5.002143859863281250e+00 -5.082040786743164062e+00 -5.127898216247558594e+00 -5.124769210815429688e+00 -5.153701305389404297e+00 -5.302787303924560547e+00 -5.425701141357421875e+00 -5.475821971893310547e+00 -5.534240245819091797e+00 -5.487464904785156250e+00 -5.509655475616455078e+00 -5.588969230651855469e+00 -5.623345375061035156e+00 -5.657712459564208984e+00 -5.727145195007324219e+00 -5.778882026672363281e+00 -5.770301818847656250e+00
-2.966541051864624023e+00 -2.780839681625366211e+00 -2.930460691452026367e+00 -2.947866201400756836e+00 -2.987135410308837891e+00 -2.909533977508544922e+00 -2.857827425003051758e+00 -2.924248456954956055e+00 -2.864590644836425781e+00 -2.790062904357910156e+00 -2.954203367233276367e+00 -2.853453874588012695e+00 -3.015203952789306641e+00 -2.907239675521850586e+00 -2.962215185165405273e+00 -3.063996315002441406e+00 -2.984571695327758789e+00 -2.999975204467773438e+00 -2.952996253967285156e+00 -2.905643224716186523e+00 -2.977218151092529297e+00 -3.158385038375854492e+00 -3.047390460968017578e+00 -3.223803520202636719e+00 -3.257853269577026367e+00 -3.273000001907348633e+00 -3.210258245468139648e+00 -3.316625356674194336e+00 -3.270444393157958984e+00 -3.515502691268920898e+00 -3.537442207336425781e+00 -3.697844505310058594e+00 -3.682321310043334961e+00 -3.836103439331054688e+00 -3.960410594940185547e+00 -3.805257558822631836e+00 -3.895639657974243164e+00 -4.278681755065917969e+00 -4.226412296295166016e+00 -4.218876361846923828e+00 -4.121337413787841797e+00 -4.104224681854248047e+00 -3.935592889785766602e+00 -3.970623254776000977e+00 -4.037837505340576172e+00 -3.831331729888916016e+00 -3.765230178833007812e+00 -3.658910036087036133e+00 -3.574240446090698242e+00 nan -3.616958379745483398e+00 -3.689454793930053711e+00 -3.556822776794433594e+00 -3.465584039688110352e+00 nan nan -3.378620862960815430e+00 -3.690132617950439453e+00 -3.727167606353759766e+00 -3.770777702331542969e+00 -3.815043210983276367e+00 -3.714950323104858398e+00 -3.979206085205078125e+00 -4.122912883758544922e+00 -4.184577465057373047e+00 -4.020927906036376953e+00 -4.007106304168701172e+00 -4.029516220092773438e+00 -4.116405963897705078e+00 -4.147727489471435547e+00 -4.236209392547607422e+00 -4.238704204559326172e+00 -4.176096439361572266e+00 -4.231912612915039062e+00 -4.248136043548583984e+00 -4.333316326141357422e+00 -4.285310745239257812e+00 -4.377190589904785156e+00 -4.362459659576416016e+00 -4.441698551177978516e+00 -4.440042018890380859e+00 -4.443010807037353516e+00 -4.395116806030273438e+00 -4.470790863037109375e+00 -4.592374801635742188e+00 -4.608697891235351562e+00 -4.632671356201171875e+00 -4.701884269714355469e+00 -4.729966640472412109e+00 -4.766837596893310547e+00 -4.841275691986083984e+00 -4.827178001403808594e+00 -4.872575283050537109e+00 -4.812364101409912109e+00 -4.810509204864501953e+00 -4.863965034484863281e+00 -4.862638473510742188e+00 -4.960365772247314453e+00 -5.012302398681640625e+00 -5.072677135467529297e+00 -5.061726093292236328e+00 -5.124015331268310547e+00 -5.205690860748291016e+00 -5.223818778991699219e+00 -5.227241992950439453e+00 -5.278504848480224609e+00 -5.359658241271972656e+00 -5.466833114624023438e+00 -5.509348392486572266e+00 -5.559446811676025391e+00 -5.495157718658447266e+00 -5.398576259613037109e+00 -5.511576652526855469e+00 -5.627028942108154297e+00 -5.616738796234130859e+00 -5.700298786163330078e+00 -5.762534618377685547e+00 -5.729831218719482422e+00
-2.981971025466918945e+00 -2.919003248214721680e+00 -3.105158329010009766e+00 -2.882242918014526367e+00 -2.944693088531494141e+00 -3.013341426849365234e+00 -2.891531944274902344e+00 -2.881629228591918945e+00 -2.985925436019897461e+00 -2.924166202545166016e+00 -2.709077835083007812e+00 -2.930464029312133789e+00 -2.978843927383422852e+00 -2.911713838577270508e+00 -3.111220598220825195e+00 -3.034682035446166992e+00 -3.074548482894897461e+00 -3.108189344406127930e+00 -3.159985065460205078e+00 -3.016777038574218750e+00 -3.022368431091308594e+00 -3.190587520599365234e+00 -3.128999948501586914e+00 nan -3.292700290679931641e+00 -3.408532142639160156e+00 -3.435568094253540039e+00 -3.391013860702514648e+00 -3.361999988555908203e+00 -3.480291843414306641e+00 nan -3.643307209014892578e+00 -3.734617710113525391e+00 -4.288000106811523438e+00 -4.000701427459716797e+00 -4.123863220214843750e+00 -4.055939674377441406e+00 -4.080795288085937500e+00 -4.213253021240234375e+00 -4.073760032653808594e+00 -4.015465259552001953e+00 -4.040691375732421875e+00 -3.912632942199707031e+00 -3.835274219512939453e+00 -3.940839052200317383e+00 -3.807564973831176758e+00 -3.706276178359985352e+00 -3.845438718795776367e+00 -3.668171167373657227e+00 -3.687059164047241211e+00 -3.508555173873901367e+00 -3.513185739517211914e+00 -3.543446063995361328e+00 -3.416365385055541992e+00 nan -3.274572134017944336e+00 -3.536198854446411133e+00 -3.552069425582885742e+00 -3.715557813644409180e+00 -3.744614601135253906e+00 -3.783149242401123047e+00 -3.817492961883544922e+00 -4.045262813568115234e+00 -4.143342494964599609e+00 -4.138171195983886719e+00 -4.036923408508300781e+00 -4.023530006408691406e+00 -4.088482856750488281e+00 -4.061928272247314453e+00 -4.087808132171630859e+00 -4.164229393005371094e+00 -4.183177471160888672e+00 -4.198098659515380859e+00 -4.219872474670410156e+00 -4.271038532257080078e+00 -4.293811798095703125e+00 -4.336157798767089844e+00 -4.413425445556640625e+00 -4.410303592681884766e+00 -4.414556026458740234e+00 -4.460828781127929688e+00 -4.490291595458984375e+00 -4.433507442474365234e+00 -4.520950317382812500e+00 -4.606219291687011719e+00 -4.653670310974121094e+00 -4.664435386657714844e+00 -4.718217372894287109e+00 -4.751649379730224609e+00 -4.822014331817626953e+00 -4.879419326782226562e+00 -4.922747611999511719e+00 -4.933400154113769531e+00 -4.948046207427978516e+00 -4.953781604766845703e+00 -4.868054866790771484e+00 -4.916005134582519531e+00 -5.013239860534667969e+00 -5.095277309417724609e+00 -5.129025459289550781e+00 -5.162734031677246094e+00 -5.205451488494873047e+00 -5.217623710632324219e+00 -5.235978603363037109e+00 -5.235888004302978516e+00 -5.290996551513671875e+00 -5.356572151184082031e+00 -5.466466903686523438e+00 -5.571134090423583984e+00 -5.574379920959472656e+00 -5.477616310119628906e+00 -5.437839984893798828e+00 -5.447946548461914062e+00 -5.571955204010009766e+00 -5.638206958770751953e+00 -5.714074134826660156e+00 -5.695361137390136719e+00 -5.661931514739990234e+00
-2.974977731704711914e+00 -2.913001060485839844e+00 -2.871163606643676758e+00 -2.813640594482421875e+00 -2.768091917037963867e+00 -2.991383790969848633e+00 -3.044588804244995117e+00 -2.997574329376220703e+00 -2.900745153427124023e+00 -3.052994251251220703e+00 -3.044539690017700195e+00 -2.913132905960083008e+00 -3.137666940689086914e+00 -3.096691131591796875e+00 nan -2.917000055313110352e+00 -3.080264806747436523e+00 -3.149129867553710938e+00 -3.139089584350585938e+00 -3.039989471435546875e+00 -3.254725694656372070e+00 -3.210999965667724609e+00 -3.225705385208129883e+00 -3.299999952316284180e+00 nan nan nan nan nan nan nan nan -4.203999996185302734e+00 nan -4.233106613159179688e+00 -4.190056324005126953e+00 -4.142000198364257812e+00 -4.060939788818359375e+00 -4.019283771514892578e+00 -4.017567157745361328e+00 -3.866807937622070312e+00 -3.755592823028564453e+00 -3.855502128601074219e+00 -3.727687597274780273e+00 -3.776256322860717773e+00 -3.715428590774536133e+00 -3.583650588989257812e+00 -3.582648992538452148e+00 -3.535961151123046875e+00 -3.463000059127807617e+00 -3.537680625915527344e+00 -3.588542938232421875e+00 -3.410663604736328125e+00 -3.281026124954223633e+00 -3.348107337951660156e+00 -3.199750661849975586e+00 -3.399692773818969727e+00 -3.496124744415283203e+00 -3.633337259292602539e+00 -3.746273517608642578e+00 -3.842525005340576172e+00 -3.954415082931518555e+00 -4.111505985260009766e+00 -4.271549224853515625e+00 -3.913109302520751953e+00 -3.989157199859619141e+00 -4.144671916961669922e+00 -4.126224517822265625e+00 -4.166425704956054688e+00 -4.134873867034912109e+00 -4.110157966613769531e+00 -4.138213634490966797e+00 -4.191679000854492188e+00 -4.242551326751708984e+00 -4.271484851837158203e+00 -4.308088779449462891e+00 -4.440006732940673828e+00 -4.461866378784179688e+00 -4.525777816772460938e+00 -4.396445751190185547e+00 -4.459800243377685547e+00 -4.467450141906738281e+00 -4.496578216552734375e+00 -4.585355758666992188e+00 -4.625845909118652344e+00 -4.642780780792236328e+00 -4.672312259674072266e+00 -4.719297409057617188e+00 -4.799671173095703125e+00 -4.814825057983398438e+00 -4.854422092437744141e+00 -4.915821552276611328e+00 -4.940909862518310547e+00 -4.999961853027343750e+00 -4.980488300323486328e+00 -4.978507518768310547e+00 -5.047531127929687500e+00 -5.040237903594970703e+00 -5.096423625946044922e+00 -5.137680053710937500e+00 -5.189271450042724609e+00 -5.222575187683105469e+00 -5.285720825195312500e+00 -5.286431312561035156e+00 -5.240205287933349609e+00 -5.281548023223876953e+00 -5.410803794860839844e+00 -5.491867542266845703e+00 -5.564388751983642578e+00 -5.643733024597167969e+00 -5.620136737823486328e+00 -5.585678100585937500e+00 -5.554090023040771484e+00 -5.662591457366943359e+00 -5.756949901580810547e+00 -5.775400638580322266e+00 -5.751878261566162109e+00 -5.723051071166992188e+00
-2.924271583557128906e+00 -3.035215616226196289e+00 -3.102377653121948242e+00 nan -3.075604915618896484e+00 -2.876904726028442383e+00 -2.937598705291748047e+00 -2.978474855422973633e+00 -2.969370365142822266e+00 -2.948896169662475586e+00 -3.058847665786743164e+00 -3.010319709777832031e+00 nan -3.104567527770996094e+00 -3.092036724090576172e+00 -3.230568170547485352e+00 nan -3.228542566299438477e+00 nan -3.241345167160034180e+00 nan nan nan nan nan nan nan nan nan nan nan nan -4.113372802734375000e+00 -4.161993503570556641e+00 -4.155933856964111328e+00 -4.045031547546386719e+00 -4.025532722473144531e+00 -4.084509372711181641e+00 -4.010978698730468750e+00 -4.044438838958740234e+00 -3.721750497817993164e+00 -3.517232656478881836e+00 -3.629754304885864258e+00 -3.729140996932983398e+00 -3.637971401214599609e+00 -3.525286436080932617e+00 -3.619703054428100586e+00 nan -3.389024972915649414e+00 -3.630024909973144531e+00 -3.401480913162231445e+00 -3.472005128860473633e+00 -3.480880022048950195e+00 -3.380721330642700195e+00 -3.399348020553588867e+00 -3.404581785202026367e+00 -3.372543096542358398e+00 -3.631191968917846680e+00 -3.612851381301879883e+00 -3.700926780700683594e+00 -3.732575893402099609e+00 -3.816488265991210938e+00 -4.123937129974365234e+00 -3.913231134414672852e+00 -3.973274469375610352e+00 -4.023227214813232422e+00 -4.139709949493408203e+00 -4.109062194824218750e+00 -4.157249450683593750e+00 -4.194479465484619141e+00 -4.149291515350341797e+00 -4.297708034515380859e+00 -4.273128032684326172e+00 -4.260493755340576172e+00 -4.277659416198730469e+00 -4.329899787902832031e+00 -4.359911441802978516e+00 -4.369374275207519531e+00 -4.422157764434814453e+00 -4.381032943725585938e+00 -4.455591678619384766e+00 -4.536760330200195312e+00 -4.526640415191650391e+00 -4.603442668914794922e+00 -4.658880233764648438e+00 -4.697096347808837891e+00 -4.729246139526367188e+00 -4.737417221069335938e+00 -4.741367340087890625e+00 -4.805152893066406250e+00 -4.844785690307617188e+00 -4.929774284362792969e+00 -4.960488319396972656e+00 -5.010301113128662109e+00 -5.028092384338378906e+00 -5.031575679779052734e+00 -5.050791263580322266e+00 -5.085383892059326172e+00 -5.154101371765136719e+00 -5.186703205108642578e+00 -5.196753978729248047e+00 -5.241664409637451172e+00 -5.278782367706298828e+00 -5.263021945953369141e+00 -5.275010108947753906e+00 -5.335431098937988281e+00 -5.361783981323242188e+00 -5.450539112091064453e+00 -5.526195526123046875e+00 -5.550274372100830078e+00 -5.612416744232177734e+00 -5.645072937011718750e+00 -5.607461929321289062e+00 -5.719993591308593750e+00 -5.821434020996093750e+00 -5.878859043121337891e+00 -5.869740962982177734e+00 -5.820019245147705078e+00
-2.934688329696655273e+00 -2.994635105133056641e+00 -3.151602745056152344e+00 -2.886272668838500977e+00 -2.986503601074218750e+00 -2.915204524993896484e+00 -2.783740043640136719e+00 -3.199570178985595703e+00 -2.988218545913696289e+00 -2.920091629028320312e+00 nan -3.092992782592773438e+00 -3.120897769927978516e+00 nan nan nan nan nan nan nan nan nan nan nan nan nan nan nan nan nan nan -3.884461641311645508e+00 -3.835096597671508789e+00 -4.062627792358398438e+00 -4.195727348327636719e+00 -4.030239105224609375e+00 -3.991247653961181641e+00 -4.193633079528808594e+00 -3.969395399093627930e+00 -3.922603607177734375e+00 -3.855849504470825195e+00 -3.748687267303466797e+00 -3.605303287506103516e+00 -3.678980112075805664e+00 -3.795425415039062500e+00 -3.669245481491088867e+00 -3.540792465209960938e+00 nan -3.546974420547485352e+00 -3.605114221572875977e+00 -3.564221620559692383e+00 -3.463613033294677734e+00 -3.490329265594482422e+00 -3.393908023834228516e+00 -3.384027957916259766e+00 -3.299787998199462891e+00 -3.236568927764892578e+00 -3.420804500579833984e+00 -3.467278242111206055e+00 -3.760541677474975586e+00 -3.760482788085937500e+00 -3.846830844879150391e+00 -3.912738323211669922e+00 -3.820883035659790039e+00 -3.869442462921142578e+00 -4.020475864410400391e+00 -4.046558380126953125e+00 -4.073737621307373047e+00 -4.116303920745849609e+00 -4.147125244140625000e+00 -4.195319652557373047e+00 -4.347003459930419922e+00 -4.259127140045166016e+00 -4.283029556274414062e+00 -4.275633811950683594e+00 -4.284236907958984375e+00 -4.298893451690673828e+00 -4.341418743133544922e+00 -4.417216300964355469e+00 -4.404430389404296875e+00 -4.430908679962158203e+00 -4.471599102020263672e+00 -4.516705036163330078e+00 -4.670898914337158203e+00 -4.748444080352783203e+00 -4.733657360076904297e+00 -4.644649982452392578e+00 -4.781906604766845703e+00 -4.797438144683837891e+00 -4.853798866271972656e+00 -4.915409088134765625e+00 -4.950758457183837891e+00 -4.959540367126464844e+00 -5.018298149108886719e+00 -5.053052425384521484e+00 -5.105571746826171875e+00 -5.145233154296875000e+00 -5.167571067810058594e+00 -5.193784236907958984e+00 -5.202707767486572266e+00 -5.229766845703125000e+00 -5.258257389068603516e+00 -5.268968582153320312e+00 -5.271656990051269531e+00 -5.342876911163330078e+00 -5.355273723602294922e+00 -5.418252944946289062e+00 -5.407725334167480469e+00 -5.479405403137207031e+00 -5.519616603851318359e+00 -5.587701797485351562e+00 -5.606638431549072266e+00 -5.672910690307617188e+00 -5.727175712585449219e+00 -5.800845623016357422e+00 -5.842238426208496094e+00 -5.797985553741455078e+00 -5.913783073425292969e+00
-3.064074993133544922e+00 -3.087029218673706055e+00 -3.123221874237060547e+00 -2.931397438049316406e+00 -2.926659584045410156e+00 -3.081490278244018555e+00 -3.183466911315917969e+00 nan -2.964999914169311523e+00 nan nan nan nan nan nan nan nan nan nan nan nan nan nan nan nan nan nan nan nan nan -3.719000101089477539e+00 -3.911103248596191406e+00 -3.780830860137939453e+00 -3.870474338531494141e+00 -4.028050422668457031e+00 -3.999034404754638672e+00 -3.955165386199951172e+00 -4.069452285766601562e+00 -3.921576023101806641e+00 -3.933521509170532227e+00 -3.825620889663696289e+00 -3.761326551437377930e+00 -3.638853073120117188e+00 -3.644662380218505859e+00 -3.663006067276000977e+00 -3.829677581787109375e+00 -3.542536258697509766e+00 -3.488778829574584961e+00 -3.645061016082763672e+00 -3.372681140899658203e+00 -3.456024885177612305e+00 -3.427869796752929688e+00 -3.476305723190307617e+00 -3.397511720657348633e+00 -3.312911748886108398e+00 -3.270915985107421875e+00 -3.419524669647216797e+00 -3.440084934234619141e+00 -3.429700136184692383e+00 -3.602833271026611328e+00 -3.710686683654785156e+00 -3.862482547760009766e+00 -3.789439439773559570e+00 -3.775127410888671875e+00 -3.920339822769165039e+00 -4.052125930786132812e+00 -4.089688301086425781e+00 -4.063671112060546875e+00 -4.115160465240478516e+00 -4.154374122619628906e+00 -4.124949932098388672e+00 -4.202512264251708984e+00 -4.263922691345214844e+00 -4.284326553344726562e+00 -4.270502090454101562e+00 -4.276011943817138672e+00 -4.277779579162597656e+00 -4.299730777740478516e+00 -4.383939266204833984e+00 -4.416003704071044922e+00 -4.431195735931396484e+00 -4.511107921600341797e+00 -4.544243335723876953e+00 -4.646390438079833984e+00 -4.737495899200439453e+00 -4.647287368774414062e+00 -4.672908306121826172e+00 -4.744516849517822266e+00 -4.794591426849365234e+00 -4.895794391632080078e+00 -4.940412521362304688e+00 -4.872181415557861328e+00 -4.938667297363281250e+00 -5.010551929473876953e+00 -5.084446430206298828e+00 -5.100639820098876953e+00 -5.147543430328369141e+00 -5.134706497192382812e+00 -5.187959671020507812e+00 -5.234249591827392578e+00 -5.242066383361816406e+00 -5.275255203247070312e+00 -5.290412902832031250e+00 -5.329399108886718750e+00 -5.366722106933593750e+00 -5.409403324127197266e+00 -5.445166587829589844e+00 -5.454918384552001953e+00 -5.497705936431884766e+00 -5.566944599151611328e+00 -5.616377830505371094e+00 -5.623092651367187500e+00 -5.624227523803710938e+00 -5.665345668792724609e+00 -5.707969665527343750e+00 -5.809910774230957031e+00 -5.812795162200927734e+00 -5.879033088684082031e+00
-3.147897958755493164e+00 -3.161722898483276367e+00 -3.039154052734375000e+00 -3.027892112731933594e+00 -3.205567121505737305e+00 nan nan -3.150761604309082031e+00 -3.185183048248291016e+00 nan nan nan nan nan nan nan nan nan nan nan nan nan nan nan nan nan nan nan nan nan nan -3.784199237823486328e+00 -3.910702466964721680e+00 -3.962530374526977539e+00 -4.037885665893554688e+00 -4.146024703979492188e+00 -3.932500600814819336e+00 -4.076440811157226562e+00 -3.962749719619750977e+00 -3.955127239227294922e+00 -3.903534889221191406e+00 -3.739046335220336914e+00 -3.670506238937377930e+00 -3.765018939971923828e+00 -3.836091041564941406e+00 -3.619530439376831055e+00 -3.595155715942382812e+00 -3.519209861755371094e+00 nan -3.508595705032348633e+00 -3.553445339202880859e+00 -3.405977487564086914e+00 -3.411214113235473633e+00 -3.416478633880615234e+00 -3.335138320922851562e+00 -3.227567434310913086e+00 -3.294253110885620117e+00 -3.506135940551757812e+00 -3.414658784866333008e+00 -3.504747867584228516e+00 -3.657401800155639648e+00 -3.850449323654174805e+00 -3.889034986495971680e+00 -3.868212223052978516e+00 -3.901356935501098633e+00 -4.108726024627685547e+00 -4.108892440795898438e+00 -4.060212612152099609e+00 -4.159828662872314453e+00 -4.182201862335205078e+00 -4.161050796508789062e+00 -4.220339775085449219e+00 -4.286178588867187500e+00 -4.294855117797851562e+00 -4.310033798217773438e+00 -4.314217567443847656e+00 -4.266318321228027344e+00 -4.304492950439453125e+00 -4.360406875610351562e+00 -4.375459671020507812e+00 -4.452034950256347656e+00 -4.490407943725585938e+00 -4.535570621490478516e+00 -4.576864242553710938e+00 -4.633985519409179688e+00 -4.652831554412841797e+00 -4.665544033050537109e+00 -4.784307479858398438e+00 -4.848984241485595703e+00 -4.890815258026123047e+00 -4.889855384826660156e+00 -4.882585048675537109e+00 -4.990494728088378906e+00 -5.010368347167968750e+00 -5.056200027465820312e+00 -5.138767242431640625e+00 -5.162413597106933594e+00 -5.173654556274414062e+00 -5.195039272308349609e+00 -5.198013305664062500e+00 -5.270915508270263672e+00 -5.335922718048095703e+00 -5.320557594299316406e+00 -5.415922164916992188e+00 -5.440633773803710938e+00 -5.476454734802246094e+00 -5.430830955505371094e+00 -5.454721450805664062e+00 -5.489464282989501953e+00 -5.563976287841796875e+00 -5.630500793457031250e+00 -5.661142349243164062e+00 -5.624700546264648438e+00 -5.610846519470214844e+00 -5.660062789916992188e+00 -5.734134197235107422e+00 -5.811419010162353516e+00 -5.832556724548339844e+00
nan -3.177505970001220703e+00 -3.160243511199951172e+00 -3.144221782684326172e+00 nan nan nan nan nan nan nan nan nan nan nan nan nan nan nan nan nan nan nan nan nan nan nan nan nan nan nan -3.754545927047729492e+00 -3.773272514343261719e+00 -3.986092090606689453e+00 -3.927433490753173828e+00 -3.889481067657470703e+00 -4.077446937561035156e+00 -4.053274631500244141e+00 -3.956652879714965820e+00 -3.882687091827392578e+00 -3.722702264785766602e+00 -3.803126573562622070e+00 -3.652771472930908203e+00 -3.724597692489624023e+00 -3.713585138320922852e+00 -3.625236034393310547e+00 -3.517776489257812500e+00 -3.559735774993896484e+00 -3.531009912490844727e+00 -3.471333026885986328e+00 -3.273139476776123047e+00 -3.443538665771484375e+00 -3.465325355529785156e+00 -3.401023387908935547e+00 -3.325725793838500977e+00 -3.259647607803344727e+00 -3.262116909027099609e+00 -3.193960666656494141e+00 -3.259042739868164062e+00 -3.481427192687988281e+00 -3.673524856567382812e+00 -3.751429080963134766e+00 -3.780589580535888672e+00 -3.860268592834472656e+00 -3.955418586730957031e+00 -4.007664680480957031e+00 -4.120432376861572266e+00 -4.171176910400390625e+00 -4.138328552246093750e+00 -4.302774906158447266e+00 -4.302643299102783203e+00 -4.230213642120361328e+00 -4.311710357666015625e+00 -4.343844890594482422e+00 -4.327141761779785156e+00 -4.350684642791748047e+00 -4.355957031250000000e+00 -4.380408763885498047e+00 -4.411228179931640625e+00 -4.419867515563964844e+00 -4.450366497039794922e+00 -4.494056224822998047e+00 -4.561003208160400391e+00 -4.597760677337646484e+00 -4.618197441101074219e+00 -4.650426387786865234e+00 -4.643800735473632812e+00 -4.829302310943603516e+00 -4.816753387451171875e+00 -4.890255928039550781e+00 -4.913889884948730469e+00 -4.912181377410888672e+00 -4.956870079040527344e+00 -5.028804302215576172e+00 -5.063990116119384766e+00 -5.109094142913818359e+00 -5.121507167816162109e+00 -5.170660018920898438e+00 -5.208572864532470703e+00 -5.267458915710449219e+00 -5.279927253723144531e+00 -5.314505577087402344e+00 -5.351816177368164062e+00 -5.400465965270996094e+00 -5.463856697082519531e+00 -5.496737957000732422e+00 -5.457173824310302734e+00 -5.468521595001220703e+00 -5.500562667846679688e+00 -5.521756649017333984e+00 -5.599520683288574219e+00 -5.624805450439453125e+00 -5.650079727172851562e+00 -5.730864048004150391e+00 -5.706757545471191406e+00 -5.737716197967529297e+00 -5.778197765350341797e+00 -5.823896408081054688e+00
-3.208211183547973633e+00 -3.096999883651733398e+00 -3.203797101974487305e+00 nan nan nan nan nan nan nan nan nan nan nan nan nan nan nan nan nan nan nan nan nan nan nan nan nan nan nan nan -3.642655134201049805e+00 -3.698651313781738281e+00 -3.794789791107177734e+00 -3.800469160079956055e+00 -3.991618394851684570e+00 -4.015492439270019531e+00 -4.039668560028076172e+00 -3.998692274093627930e+00 -3.965719223022460938e+00 -3.850979566574096680e+00 -3.898273468017578125e+00 -3.883265256881713867e+00 -3.663508653640747070e+00 -3.646660089492797852e+00 -3.784303903579711914e+00 -3.551469564437866211e+00 -3.545873403549194336e+00 -3.487949371337890625e+00 -3.385895252227783203e+00 -3.366327524185180664e+00 -3.353477001190185547e+00 -3.453986406326293945e+00 -3.461374282836914062e+00 -3.391984462738037109e+00 -3.229112148284912109e+00 -3.266863107681274414e+00 -3.284202814102172852e+00 -3.332035779953002930e+00 -3.502984523773193359e+00 -3.590707063674926758e+00 -3.658051967620849609e+00 -3.734268665313720703e+00 -3.828172206878662109e+00 -3.971923828125000000e+00 -4.032618522644042969e+00 -4.127741813659667969e+00 -4.170793533325195312e+00 -4.225677013397216797e+00 -4.345452308654785156e+00 -4.403285503387451172e+00 -4.249183654785156250e+00 -4.308125495910644531e+00 -4.315660476684570312e+00 -4.345717430114746094e+00 -4.386047363281250000e+00 -4.427632808685302734e+00 -4.408936977386474609e+00 -4.572780609130859375e+00 -4.589097499847412109e+00 -4.510931015014648438e+00 -4.533493041992187500e+00 -4.564579963684082031e+00 -4.651462554931640625e+00 -4.670682430267333984e+00 -4.685438156127929688e+00 -4.718391418457031250e+00 -4.759149074554443359e+00 -4.831830978393554688e+00 -4.867372035980224609e+00 -4.876688957214355469e+00 -4.889343261718750000e+00 -4.950108051300048828e+00 -5.026331901550292969e+00 -5.047309875488281250e+00 -5.066308975219726562e+00 -5.152506351470947266e+00 -5.192902088165283203e+00 -5.225818157196044922e+00 -5.286863327026367188e+00 -5.319891929626464844e+00 -5.341870784759521484e+00 -5.348972320556640625e+00 -5.381000518798828125e+00 -5.431732177734375000e+00 -5.476489543914794922e+00 -5.490211009979248047e+00 -5.480512142181396484e+00 -5.490245819091796875e+00 -5.548453807830810547e+00 -5.641737461090087891e+00 -5.662494182586669922e+00 -5.626681327819824219e+00 -5.683372974395751953e+00 -5.701217651367187500e+00 -5.716606616973876953e+00 -5.745338439941406250e+00 -5.807924747467041016e+00
